F0,F1,F2,F3,F4,F5
-4.751465552876366766e-02,1.295194560153912766e-01,5.835390097525836040e-02,4.315311546889097905e-01,4.066065425235269037e-01,-9.548805865571817486e-02
-1.987043209420494977e-02,8.665839201145446313e-02,7.459750192874994856e-03,1.630940868006715005e-01,3.665066676527660161e-01,3.620300999383238572e-02
-9.251849298082555351e-02,2.631706268211866373e-01,6.148204059531091337e-02,3.958717276853344069e-01,4.889251779988419422e-01,-1.061300412221856393e-01
-2.474924460140117410e-01,1.583730681055768863e-01,-9.053459255596735256e-02,3.122513828903532573e-01,5.439854264355146185e-01,-3.375612140726899635e-02
-1.024651397126675051e-01,3.255572590573714564e-02,-1.471675201664991439e-01,3.570789822586301621e-01,5.939805469666203930e-01,-2.313957309371733051e-01
-1.141962424937190412e-01,2.079493171989482414e-01,-1.636764709872307322e-01,3.461219344486455851e-01,4.494510565409945424e-01,-2.251787871669164720e-01
-4.291556879783332834e-02,5.166224171118735664e-02,-1.037012631297583864e-01,3.115633895057672853e-01,4.922766446911965299e-01,-1.184552321181142065e-01
-5.021064674539213457e-02,1.169420149040596435e-01,-1.136851616937776532e-01,3.977311468276695239e-01,4.396435052637542307e-01,-1.618171446738556896e-01
-2.255016217418756297e-01,1.138260651148723379e-01,-4.807140061842293810e-02,3.189370624901776141e-01,4.945780361924712598e-01,-2.262758610840915341e-01
-7.185694982770825245e-02,1.561888527976255658e-01,-3.480262824358926199e-03,3.105035795969887102e-01,3.811726040368991208e-01,-3.987329865746791491e-02
-1.355150156998936595e-01,9.969336750187055007e-02,-1.327994844665915941e-01,4.278119418633704041e-01,4.674147778236555917e-01,-1.375269281076387240e-01
1.489132273369955795e-03,2.327919593771826667e-02,-2.477320701766404926e-02,2.874070536234150097e-01,5.903139789899842782e-01,-1.639451545050457648e-02
-9.189129058696769714e-02,2.300549218426639064e-01,-1.489619225308704276e-01,4.973598035512836746e-01,5.453258448506670408e-01,-1.436935340003303030e-01
8.039582672140069275e-03,2.022890790719079623e-01,-3.360762649071324937e-02,4.104288119023280501e-01,5.829643931999425321e-01,-1.158517973742835966e-01
-4.161201463294080666e-02,3.832305056665707976e-02,8.980263278838085395e-02,4.031408955345662237e-01,5.284214372420654726e-01,-2.020660425750021583e-01
9.158997959077128104e-02,8.623618862334889168e-02,-9.584568797675149798e-02,2.866928376792619582e-01,5.625656946475694475e-01,1.286145183985329399e-02
1.939999215900115037e-03,2.983454839182876905e-01,-1.320258212387819263e-01,5.590558282410169610e-01,5.172693117682586328e-01,-1.345959351579801844e-01
-8.973857593209576267e-02,2.194998148312640729e-01,-1.277663887762069128e-02,4.766211854139806858e-01,3.902194118625102459e-01,-9.122388119352634051e-02
3.825884681910261820e-02,1.339510685316023519e-01,-1.185548381826720399e-01,4.184870837612777450e-01,5.871992559251472121e-01,-1.458456581869016500e-01
-4.113917521738291033e-02,1.889341564482640012e-01,-1.246452484094376090e-01,4.519924477831915866e-01,4.657891395328832007e-01,-1.619431503788459903e-01
-1.789916799076510245e-02,1.292687984232813725e-01,-1.580684565687311832e-02,3.348183706612716803e-01,3.906428953557783412e-01,-8.990600724623765139e-02
-3.838033122158874405e-02,1.965789931441680460e-01,-4.894053906820333699e-02,2.581966094265842893e-01,5.267568903570823968e-01,4.383451709533928153e-02
2.016863293502403620e-02,1.090528498133627178e-01,-1.687778297788448678e-01,3.100087908827682259e-01,5.781193153089430048e-01,-1.211513518215251162e-01
-1.477521733682932437e-01,9.293875459987507859e-02,-7.037072462056497002e-02,3.250630895900474826e-01,3.915200196973672719e-01,-4.073240656439434948e-02
-1.141742738750069208e-01,2.998992458393906491e-01,-1.026688444709799863e-01,2.889908104131171940e-01,4.695114522609932783e-01,-5.265953074179492710e-02
-3.389498342679389542e-03,2.259858273737160028e-02,-1.432603815281341397e-01,2.820070855942148347e-01,4.848355001837346134e-01,-3.660040962154909039e-02
-4.880609672281438494e-02,9.393266327560378937e-02,6.844989182833952079e-03,4.742570727694944699e-01,5.091953672309744716e-01,-1.861662163325333574e-01
-1.359245400272846016e-01,1.472892079038134183e-01,-9.923356582643555468e-02,3.198092003995003374e-01,3.718117921659752079e-01,-1.403833639064754890e-01
-2.684544511149805635e-01,1.802626994208961220e-02,-1.187521411941266231e-02,3.341221803732296047e-01,4.671475479741071801e-01,-1.908868882933378863e-01
5.697626965634544627e-02,1.672087134174704837e-01,-1.669146535076524440e-01,3.255281369026097882e-01,3.856305280961317417e-01,-1.192023360765523121e-01
-9.116736059023329564e-02,2.116218973339352716e-01,-2.881475892419632645e-05,4.386444523249152239e-01,5.529469314751310760e-01,2.903397444544944528e-02
-9.702833872913778357e-02,1.981938287679131938e-01,2.647290117820584598e-02,3.587042822001545450e-01,3.556451317049120764e-01,-7.347565387787197144e-02
-1.401134671751804728e-01,1.380602635284959856e-01,-3.978643126874055469e-02,3.895940372490396819e-01,4.848539113282028801e-01,-5.530063164260028835e-02
-1.166453248116235270e-01,1.131660962813660354e-01,-1.387525554791192162e-01,4.622067421519204244e-01,4.889912606619893909e-01,-1.177040075559256938e-01
-7.999635574906055480e-02,1.182796615740641655e-01,-1.396820011443885012e-01,5.941460435525869332e-01,4.958272013893627039e-01,-1.477599210294370802e-01
-7.087915898714833296e-02,1.644255861440793165e-01,-4.976233612872682510e-02,2.537592156335171101e-01,4.477688583905933273e-01,-1.567596960674351725e-01
-1.189696401073982585e-01,1.791010465756604220e-01,-1.062923829360683248e-01,2.642156168513845604e-01,5.158491924474255530e-01,-1.943731270750769236e-01
-2.551986268641976974e-01,1.999213636653401627e-01,-2.795821615009020517e-02,5.256384398357923926e-01,4.371237834383486232e-01,-1.594599602680344952e-01
-1.020752993958365107e-01,1.212427586138195568e-02,-8.739036457016027826e-02,3.798704910331798801e-01,5.357845975332312660e-01,-3.900301050972092287e-02
-2.030490232133122241e-01,9.993773594164817586e-02,-2.029501774029096595e-02,3.189175376257010752e-01,4.423306417037419225e-01,-1.070045951833183268e-01
-1.631661920131603771e-02,3.548125456959906610e-02,-1.210629599601523165e-01,4.537161897403655941e-01,5.044379772604357104e-01,-2.230951206190850411e-01
-1.201357790115319679e-01,1.416984670676791069e-01,-1.106129635115933041e-01,2.852833304118225222e-01,4.762737504316916781e-01,-2.468760879030273414e-01
-6.870524528515567497e-02,1.536680837082100015e-01,-8.754177588929895615e-02,4.386994826787080637e-01,2.784450508296801852e-01,-8.970143056579402141e-02
-4.263987117387741527e-02,1.146902642709802106e-01,-1.151470959439762909e-01,5.669699011847201264e-01,4.559066608639940066e-01,-8.332813576035633107e-02
1.020336847724100937e-01,2.273189505593087578e-01,-7.134781064642495285e-02,2.098785349870911088e-01,5.662974653344107212e-01,-1.631355717517216919e-01
-2.373911679927748902e-02,2.425613805399685075e-01,-1.469008129713290089e-01,4.174216592276379645e-01,5.506300860937985986e-01,-7.013158976689803925e-02
-1.179075053124321038e-01,6.128920733498112450e-02,1.238132269746772818e-01,3.355133243300825185e-01,5.396105944691879097e-01,-1.257083156012517022e-01
-2.597611021760232175e-02,1.754300339799941821e-01,-9.470032815851359143e-02,4.005265176771717339e-01,5.744309813667910491e-01,-2.044917705319712065e-01
-1.351148056309254830e-01,1.091218750064274490e-01,-8.548920121993423826e-03,3.811886947484016686e-01,3.736978958738811918e-01,-2.063581941216103277e-01
-9.013286375942233808e-02,2.319139734810141129e-01,-7.321991070337577345e-02,4.539163317592168068e-01,4.148512429856147654e-01,-1.923973357416441099e-01
-6.819291703916116609e-02,1.229962814046196840e-01,-6.582151499834433539e-02,3.572981680855024100e-01,4.564944385524725146e-01,-1.207061282282082676e-01
-1.465904341893164431e-01,7.478594185253235882e-02,-4.022358042170880166e-02,3.273158889480801692e-01,4.428006791991369040e-01,-1.944520619766159086e-01
1.186430357790179413e-01,2.211802389959283410e-01,-1.193738432649160963e-01,3.776502957859961263e-01,3.842375867110080501e-01,-6.627040029086000983e-02
-1.786363313482425830e-01,1.942873588108516292e-01,-2.773541759288979947e-01,4.610355767659743975e-01,4.937865671920692034e-01,-2.347353365131701897e-01
6.704537572952601332e-02,1.097072351232287746e-01,2.395502498853571693e-02,3.305041041042088845e-01,3.825586620200660537e-01,-1.628520752181516762e-01
-1.005688255968790745e-01,1.584013932590113971e-01,-9.189103584416632997e-02,3.522782452303221401e-01,4.870207518795111046e-01,-7.762219892950228406e-02
-2.005750516733456057e-01,9.086589366152897362e-02,4.788257464960875287e-02,3.233263498943137471e-01,4.288457140718917038e-01,-1.604598535747290000e-01
-1.176437063148246809e-01,1.954078601506016866e-01,-1.011834575056635710e-01,2.266837628587676234e-01,4.639146674709095919e-01,-6.955015944331455202e-02
-4.697112239135495249e-02,1.587385557783559387e-01,-6.368037673848403468e-02,4.752414395773127964e-01,4.372856005360095111e-01,-1.293900496918475307e-01
-1.738090416992763287e-01,6.662819299116903848e-02,-3.974463347239313993e-02,3.677913091695298453e-01,4.469981613570763734e-01,-5.991409963853543130e-02
-3.367609998855947140e-02,2.053518673834428543e-02,-1.041356072746272426e-02,3.962064139438062349e-01,5.224614145113392061e-01,-1.304837371313760097e-01
-4.288291031166605038e-02,6.428297740108254721e-02,-2.447304654338222918e-01,2.396685966811138158e-01,3.529891045453372178e-01,-1.139585258127989720e-01
-2.035165235013705887e-01,1.590019115293780927e-01,7.080626475073703574e-02,3.034978639942740863e-01,4.487873800389489687e-01,-7.837809468924382406e-02
-2.160138183155767000e-01,8.511579691820843341e-02,-8.600205711452868496e-02,3.601150646747471318e-01,5.398918690688560007e-01,-5.881755332300003802e-02
-2.681945349504610832e-03,5.682906584779037762e-02,-1.108020979408624596e-01,5.231388314899403369e-01,4.874642147433105310e-01,-6.495968295435447515e-02
-4.563041972463485751e-02,1.505972446718951974e-01,3.425000195266592051e-03,2.333597357831919406e-01,4.097093615573543790e-01,-1.290131643504350833e-01
-7.196859734404273401e-03,1.272600281143396184e-01,-8.739856687187555484e-02,2.622025723843831591e-01,5.093895362729462528e-01,5.900227305168093128e-05
-6.407059950055372932e-02,2.831427164673250285e-01,6.044867891369620772e-02,4.249889024061965226e-01,5.025571509891743061e-01,-5.399991850964552809e-02
-6.565522561795489320e-02,1.533929672770998620e-01,-7.292935807346108412e-02,2.041531549939155643e-01,2.806439132615487497e-01,-5.308856904491281170e-02
-5.302458817116782047e-02,3.280409538757905752e-02,-1.001480011613021526e-01,3.407780217591989125e-01,4.821586539762952039e-01,-5.807455668914475455e-02
-4.914397216188439582e-02,1.463165443470485771e-01,3.996137364375956791e-03,3.047882673709617074e-01,4.688907805080508306e-01,-6.267799918012663396e-02
-1.765228972446437616e-01,1.614015567814946761e-01,-6.935858863375571337e-02,3.563711617434674461e-01,4.559732281563121381e-01,-5.761223330234375301e-02
-1.596908101839581429e-01,1.370834179451655699e-01,-1.256728491450071483e-01,4.327450812110765765e-01,5.184578346928686576e-01,-1.875382316212492184e-01
-5.223042055536105538e-02,3.072032146232910321e-01,-3.501910518496104130e-02,4.332569660073112283e-01,3.165997228691083132e-01,-1.481144880448124757e-01
-8.071751088055874324e-02,6.776904530514256397e-02,-1.042439493164538933e-01,4.096249139780885895e-01,4.757767243917855882e-01,-1.461172914292321601e-01
1.320986290906971672e-01,8.259164317167230762e-02,-1.400505367710182525e-01,3.467342088834585168e-01,4.804626916342116805e-01,-2.705896730638092107e-01
-1.229558322812623339e-01,8.924734765192619823e-02,-8.469528938154219366e-02,2.111574437084549893e-01,5.300913592350404713e-01,4.730165709670858254e-04
-1.525890512863986581e-01,1.854823082697346637e-01,2.881167966557528215e-02,5.099320260921426096e-01,5.324324352655404047e-01,-6.464048009587040899e-02
-1.130076206270324568e-01,-6.606348058843464210e-02,7.311007492057874924e-03,3.103723657841523931e-01,5.006136808411491002e-01,-1.470683074593441553e-02
-5.729262334308939109e-02,1.179634683179090621e-01,-1.456626494829830754e-01,3.876791606799339096e-01,5.503746139674582372e-01,-4.250594948685069985e-02
-8.273253181827927571e-02,1.048506538278341782e-01,-1.156437476806967124e-01,6.332818326492188898e-01,4.584618237428408904e-01,-1.850758412874490833e-01
-7.930384486389946419e-02,1.272002357028758635e-01,2.620513096091257876e-02,4.260554863203452336e-01,4.248322413998475988e-01,-1.399429823982999421e-01
-2.118054216747109475e-01,2.497672788813483091e-01,-1.577243438549871257e-01,2.455330557293104177e-01,5.555145821100322401e-01,-5.630470183400584916e-02
-2.464407648422648756e-01,1.599270601704652628e-01,-1.157652640102424801e-01,2.724428285751393508e-01,5.336705184300771787e-01,-8.299508660234794499e-02
7.422703942330083349e-02,7.301691679081283304e-02,-8.040604738226302117e-02,4.172367789703007590e-01,4.042767440987953820e-01,-2.297096556948509116e-01
-1.531335160561598796e-01,2.586187062946565529e-01,1.330427903157722913e-02,4.134602288431059591e-01,5.213841073391034531e-01,-2.760389929745533655e-01
-4.165437886650930760e-02,1.510705874604380272e-01,3.659372706336401493e-02,1.911649839750102498e-01,4.245541584262632062e-01,-2.026855119397126259e-01
-9.209174162375845241e-02,1.371238456935425232e-01,-7.881297816017560076e-02,3.683366376590241908e-01,3.829263293772240950e-01,-1.021906150350828935e-01
5.483749337190851891e-02,1.104694429656943033e-01,-9.350374991905942290e-02,3.700945626177640224e-01,2.927013665395179487e-01,-4.399247507467389517e-02
-1.309437367780903472e-01,1.535819787220357446e-01,-4.916241169898519225e-02,4.975926064334319499e-01,4.457866097742724798e-01,-5.312746808192542192e-02
3.579288900441125743e-02,1.475170808464066896e-01,-2.535093986361754981e-01,3.310402088148317046e-01,4.127873196731001726e-01,-2.072780221184327420e-01
-8.019839028239042489e-02,3.699105943993724610e-03,-4.664526879044321450e-02,5.719272617988158114e-01,4.767933984201946918e-01,-1.656254367070294498e-01
-2.304419968832589066e-02,1.879568261137376517e-01,-6.171539406110188031e-02,4.235497056809890970e-01,3.414304826326592379e-01,-8.601755798071258896e-02
-9.995939698829212072e-03,1.168528104206438684e-01,-1.473269297919294757e-02,3.950877136904609732e-01,3.889560900601943816e-01,-1.707796314763695977e-01
2.155657938667582263e-02,9.322501474741151650e-02,-2.201774777274178307e-01,3.800341020029610606e-01,5.161003332157624302e-01,-1.932707041113898017e-01
-1.170098222134365318e-01,1.814430673348390588e-01,-7.994886287590169394e-02,3.421218338923473490e-01,2.601710509329511201e-01,-1.429674717504674231e-01
-3.841046380014862677e-02,5.937199317399403931e-02,-8.015833094051888486e-02,4.404390677225354378e-01,4.889968586243977899e-01,-9.288259405276003133e-02
-9.507150332032275608e-02,1.316400680072523366e-01,-1.375975120512325234e-01,3.496707532584365508e-01,4.915409391679470552e-01,-2.209071610722992962e-01
-5.577231570543025874e-02,9.879880520901078433e-02,-1.760570330793795879e-01,3.071830977826405240e-01,3.527229137121008495e-01,-1.239947591303343088e-01
-1.091047809663620305e-01,4.187610881265257934e-02,-2.032477646699346607e-01,4.020871392927899968e-01,5.234886502361171257e-01,-7.583203197870119761e-02
-4.137246607372993545e-02,1.722028914189549509e-01,-4.431947183030215953e-02,3.799575504020740180e-01,3.629906401008534123e-01,-3.000778866159925506e-02
-1.093520145847444308e-01,1.217701241558860892e-01,-8.053968015464121888e-02,4.523656066233158191e-01,3.817490897236132108e-01,-1.418070399139738924e-01
6.802970195566937495e-02,1.457835662167645263e-01,-6.695003123334040962e-02,4.081952398041151509e-01,4.558151000821635823e-01,-1.628158275344046002e-01
-1.083353495006202510e-01,1.780805745081860958e-01,-9.909385388348557200e-02,4.335289182475119407e-01,4.805303105076132453e-01,-1.783430353524055045e-01
4.115876830491121963e-02,2.550485549840200705e-01,-6.971838321655129955e-02,4.652516713782379743e-01,3.971126971469783884e-01,-4.693950339226200807e-02
-1.026950490119395848e-01,1.401245430950146253e-01,2.075625873876334182e-02,2.826786148977940005e-01,5.673573712566684080e-01,-1.569845885690216991e-01
-2.768520797143714240e-01,1.874010285572641488e-01,-3.677663625202882980e-02,4.174718916770135957e-01,4.937049096855394836e-01,-1.013743224492250766e-01
-1.902588838658507975e-01,7.042001774983663864e-02,-9.237686235057065987e-02,3.857469237916710814e-01,3.792859163947915335e-01,-1.793348231190934894e-01
-6.788665588538561613e-02,9.406736389362799211e-02,-9.863807846069234941e-02,4.323037986926313025e-01,5.357562821215664517e-01,-1.181349284311406372e-01
-4.378184575989427924e-02,-4.523648951618441938e-03,-1.065227892203176041e-01,2.122494200916388851e-01,4.026860202936281552e-01,-2.475103035488468162e-01
-4.238328711762720524e-02,2.270673967679647243e-01,-1.383108441151524037e-01,4.114351265437899419e-01,4.901225606022711068e-01,-2.078730021130620331e-02
2.080826721815323688e-02,2.151260251717236893e-01,-1.354013986127389213e-03,3.387992995313828248e-01,2.743058157464657310e-01,-1.607405124944765173e-01
-2.155303243079296771e-01,3.359127257076691686e-01,-6.530392864654335772e-02,5.813802874685467525e-01,5.270753396973539839e-01,-9.430964524267462790e-02
-2.299413966046288116e-01,2.329520385056822462e-01,-1.054712546135818246e-01,2.571988580554829262e-01,4.105786142377972903e-01,-1.398621376046220444e-01
1.713751463207256742e-02,4.927491766729684419e-02,-1.792075741069432959e-01,4.095055215260637871e-01,5.367879651357855275e-01,-1.696383560135505675e-01
1.078797758788489214e-01,1.430930000388603851e-01,1.328029366769262198e-02,4.128066653898915250e-01,4.777914103756748521e-01,-3.141483835587248474e-02
-1.759316663400740249e-02,1.227161389160600358e-01,-1.186970018397019017e-01,3.286310922895687714e-01,4.568968462260911689e-01,-2.719460789996799854e-02
-1.164654846365475727e-01,1.017932132637494880e-01,2.017873457492037892e-02,3.198332307556953635e-01,4.295736385851691708e-01,-1.425960831377883486e-01
-1.096527674194295587e-01,7.508398142255938434e-02,-1.918894948716303450e-01,4.082477560037313102e-01,5.467203131275351069e-01,-1.793380624645573851e-01
1.478288449236969393e-01,2.270243642837733167e-01,-3.599246941021115864e-01,4.655088664416294764e-01,-4.505318999560323223e-01,-1.591156117114639890e-01
2.782549023279909939e-01,3.159743007914210811e-01,-2.386913496906941379e-01,4.128387997272628396e-01,-3.493294258021210075e-01,-5.344227012647892461e-02
3.466954213130114537e-01,3.487580410090097560e-01,-4.128220415171222624e-01,5.353554823096668969e-01,-3.109605392827391457e-01,-3.710221659316089160e-01
1.179047860119319807e-01,3.181769316758134569e-01,-3.378973963742373243e-01,5.272223795906637589e-01,-2.654547293803548591e-01,-2.104773911325353852e-01
1.504433597943544976e-01,3.691082152986844833e-01,-2.804043726984563056e-01,5.314058293272770905e-01,-3.142926912856326416e-01,-2.492024151072752547e-01
2.292682686700535100e-01,2.778354980752950620e-01,-2.991556087813844744e-01,6.211186324444284423e-01,-3.359477288681970708e-01,-2.181825129809126795e-01
2.055074174249256203e-01,3.108127241905751514e-01,-4.230096465829588648e-01,4.447459976841159901e-01,-3.207023348558242781e-01,-2.907104067287263338e-01
1.337150956077895747e-01,3.610174763283468535e-01,-2.413993077285796207e-01,5.924297887240201899e-01,-3.435419788657688156e-01,-3.540011311001152738e-01
2.248685437401717890e-01,2.133857413657357371e-01,-2.491482399517365998e-01,5.159514273480452218e-01,-3.245959108875091093e-01,-1.668447429721796049e-01
1.647438639675856409e-01,2.508837921673042759e-01,-1.792691973338837452e-01,4.023504202870813451e-01,-3.420435745425038365e-01,-2.764036368642079355e-01
2.828662301314976424e-01,4.208609784504647178e-01,-3.475140621891154025e-01,4.399988584294259875e-01,-4.323003624376072773e-01,-2.025411731634584878e-01
-4.417137899844665871e-01,3.941440975331148011e-02,1.003914660322523661e-01,4.788282436736150949e-01,6.352833336704231948e-02,4.213510691937882857e-01
-4.765366747109170409e-01,-1.083016071265821695e-01,1.539298659238816369e-01,3.540778647414939972e-01,-9.899617620273717944e-02,4.091696974182721380e-01
-4.517605895001192695e-01,-1.030157971009159068e-01,1.778328875772217654e-01,5.142820489001976858e-01,-8.288121757073554918e-02,5.674643085233118667e-01
-4.735050320762468901e-01,-1.352469304827480512e-02,2.305256147199611083e-01,3.482077520966070372e-01,3.644066757975367860e-03,4.729022348771669826e-01
-4.415650734748478023e-01,-9.391526762293264663e-02,1.265179775807634410e-01,3.757776327479720457e-01,-9.862436262426918510e-02,4.863767077791292248e-01
-4.462139491524051427e-01,-1.049191464871126050e-01,3.199055897580005414e-01,3.392705963975616856e-01,6.010192480910146740e-02,5.233695878941534430e-01
-6.632865111191451613e-01,-1.578329775715781036e-01,1.547042687858248000e-01,2.697633696747090415e-01,-9.002664851780597943e-02,4.442675331359191571e-01
-5.950372240076188257e-01,-6.823307717191146038e-02,1.177841098180282542e-01,3.238686883312922871e-01,-1.146919888705768831e-01,4.308431938301576225e-01
-4.741977997318571059e-01,-1.359560156841658207e-01,1.656882076211706190e-01,3.604410146635304568e-01,7.593642574107214993e-02,4.855030546431265970e-01
-5.752700406383620679e-01,-1.109135116538505494e-01,1.764009720761685607e-01,4.158716874397856422e-01,-3.468032421520099440e-02,5.467078197693143737e-01
-4.249392258365909392e-01,-1.257002829389356757e-01,8.307457282920438502e-02,2.764717877659472189e-01,-4.571293032095306158e-02,4.532610004230595013e-01
-3.794014359676221582e-01,-8.369466661622443349e-02,1.104860635405902070e-02,2.834614680372908868e-01,-2.023347070123944144e-02,4.734985085725164078e-01
-4.077272932841033981e-01,-1.219686908079819498e-01,8.232055010486374891e-02,3.152184767373369390e-01,-9.110967847699547040e-02,4.886405705580765813e-01
-4.081622824683114881e-01,5.995166476857993754e-02,1.892562672364959120e-01,3.405627007884151070e-01,-8.109082032556289010e-02,3.672972326191024095e-01
-2.873236732073659039e-01,-1.142968373199972631e-01,3.091323701555805104e-02,3.240162362522320261e-01,-9.934167598538232169e-02,3.644438580784935544e-01
-5.375787234855692320e-01,-1.468699869747520093e-01,1.670883408554784400e-01,4.851110215116354873e-01,7.364123497773288063e-03,4.318243875525756281e-01
-5.350925440024258961e-01,-2.029278082159986507e-01,2.566256515452712827e-01,2.518654243627651002e-01,5.906960902727066698e-02,5.430571228337397471e-01
-4.797469229257797507e-01,-7.981194718718676029e-02,2.281925891035436471e-01,3.341514132526973713e-01,-1.316013386486667991e-01,4.944921490504169403e-01
-3.795065579675147571e-01,8.215475120951731824e-02,2.524593701596885009e-01,3.681007724826251826e-01,-1.378833389314565450e-01,4.724406152369696188e-01
-4.492591575511848956e-01,-8.668716455367247997e-02,1.317146729425902607e-01,4.596888490450734555e-01,-4.877220936605743129e-02,5.833593505571413873e-01
-4.983825804994289621e-01,3.939198863953788377e-02,4.376916311198685017e-02,2.924551183993367443e-01,2.202396689240652961e-03,3.970464935948814778e-01
-2.897380460217171549e-01,-3.960754404981320365e-01,-2.312820765936265677e-01,-4.058938925389392605e-01,4.900755245522778747e-01,-3.303427482693120920e-01
-4.497993910419554875e-01,-3.943109721090665154e-01,-2.019794353478585325e-01,-2.621457319845948986e-01,5.921134089464020755e-01,-4.094350059803401054e-01
-5.251519627862667461e-01,-4.670284026432897084e-01,-1.460272599295068252e-01,-3.071342154028317561e-01,6.777959647001688959e-01,-2.862024336306186467e-01
-4.206935233771127436e-01,-4.363167459333479603e-01,-9.498970135462975195e-02,-2.758847418434728915e-01,4.201280664177394764e-01,-2.887137665747039339e-01
-3.301704812787754073e-01,-4.189726069640826167e-01,-1.095541399354705292e-01,-1.708219736747099704e-01,4.054602985591289621e-01,-3.718948823871319753e-01
-4.891473452428587998e-01,-4.489833514297114636e-01,-2.527749057556816226e-01,-3.021517707277952547e-01,4.282675008440801623e-01,-3.596677415649455756e-01
-3.218698355303343805e-01,-5.135555695168972923e-01,-1.868614250083056039e-01,-3.629087951783154797e-01,4.323194750109627948e-01,-2.941642722180413116e-01
-4.404942769145379078e-01,-4.014576225819379562e-01,-2.074259026448292131e-01,-3.941411889357509524e-01,5.906556138328761252e-01,-3.306183466425472450e-01
-3.783955250505932622e-01,-4.534398616703675389e-01,-2.142668905442949301e-01,-4.217785356027783372e-01,4.913009672727458588e-01,-3.757657018541594729e-01
-3.367977061913139947e-01,-4.716429776154592579e-01,-2.134160803723661737e-01,-3.125856547922833961e-01,5.154876448311518367e-01,-3.335814920987408283e-01
-5.718942658836853044e-01,-4.413209097625183652e-01,-2.025547042002009968e-01,-4.100881886891112327e-01,5.141108994584687730e-01,-2.225787125901965424e-01
-2.786052920625928797e-01,-5.015762503195133615e-01,-2.952497717452020609e-01,-3.128873661344880874e-01,4.797387674817301662e-01,-4.753153405684705790e-01
-4.057732015195493758e-01,-3.547432157038483691e-01,-1.651957416160063641e-01,-3.638244312834890692e-01,4.845795372218140717e-01,-4.315030195841482730e-01
-4.829085822082683777e-01,-5.223064528019699670e-01,-3.096073356317499137e-01,-2.420015822685904483e-01,6.202989785762621500e-01,-3.878863384590725549e-01
-4.022630312340871872e-01,-4.541345886608785243e-01,-2.767157784701371748e-01,-2.708394947073295422e-01,3.967789098493753608e-01,-2.684624622370035407e-01
-3.476875064538244020e-01,-4.045799280360153349e-01,-3.654856990855758214e-01,-1.981910977550598862e-01,5.544045320693717915e-01,-3.260047423619297224e-01
-3.175004283337355959e-01,-3.207875743596348417e-01,-1.880509032776387923e-01,-2.961159820637258577e-01,5.202185062607308508e-01,-3.939414559388595416e-01
-4.882900912956626982e-01,-4.958382875983958216e-01,-2.941398798837786543e-01,-3.430716524281496316e-01,4.680942410173257739e-01,-2.696853578631739912e-01
-3.977693669755990036e-01,-5.469296009133235437e-01,-1.195941513506712101e-01,-3.545619267527752583e-01,7.525133490836062311e-01,-3.985688264628514665e-01
-5.218095432565058589e-01,-4.192261235841469036e-01,-2.290297265278814498e-01,-3.228785967582462613e-01,4.841158107941430089e-01,-3.200172461677940894e-01
-4.127883345980543073e-01,-4.141979534142901653e-01,-1.882932784362091327e-01,-4.125608768712200614e-01,4.712124974326230564e-01,-4.565676585153422562e-01
-5.384720597636077910e-01,-4.301953176182137240e-01,-1.459743489794797511e-01,-2.824980281924687753e-01,4.595080764075361590e-01,-4.277846296313249641e-01
-3.857305653023994640e-01,-4.699344111988965067e-01,-2.474889312522231821e-01,-2.833080617105275811e-01,3.871204529403229899e-01,-4.231949963729640940e-01
-4.835996302735359187e-01,-5.221117478615133756e-01,-2.911887157318628905e-01,-2.769139815260127646e-01,4.287269044351533220e-01,-3.448633677147696086e-01
-4.342497308752343299e-01,-5.705370312043325232e-01,-2.811807746482702930e-01,-1.600655661260772800e-01,3.854075149028712288e-01,-3.555726809407726563e-01
-4.198854581677377018e-01,-4.090069211486686007e-01,-1.682509784802661001e-01,-4.183658739929907444e-01,5.314128204194066285e-01,-3.511018613494935048e-01
-4.832022222037442583e-01,-4.833595386305623576e-01,-2.467640810552089448e-01,-3.093336156818359828e-01,6.082039230943242503e-01,-3.091995788004954226e-01
-3.708819962932413672e-01,-4.423557109875624893e-01,-1.200644621021535879e-01,-2.747987379520346329e-01,5.799736541994602312e-01,-4.615194755934639570e-01
-2.606933092020365939e-01,-4.509860160321246259e-01,-1.913248447467407465e-01,-2.255667867418859052e-01,6.940859644418531094e-01,-3.617508900328625931e-01
-3.184010595332125160e-01,-5.198108238401166759e-01,-2.705893664596907833e-01,-2.575508330962779091e-01,5.312943410492421137e-01,-3.140319225976451190e-01
-4.257035333347130579e-01,-4.608056496310148908e-01,-3.834978736105965624e-01,-4.216507012608450844e-01,5.488282495695182561e-01,-3.452217635555772657e-01
-3.681342564897437386e-01,-4.477364951644241531e-01,-2.438595341857123788e-01,-3.134487504134256253e-01,5.398331574670784949e-01,-3.428739349389673952e-01
-4.015040281492270324e-01,-5.577281726981550003e-01,-3.247853385359164569e-01,-2.101363066562434156e-01,5.924035201461017586e-01,-4.370560622350245783e-01
-1.208433873172768264e-01,5.003496544035791471e-01,5.018426452443852659e-01,-4.514905730781656468e-01,-3.024401905341059793e-01,-3.458522279755628648e-01
-9.583967793393365076e-02,5.023710820149774881e-01,4.478835990198203332e-01,-3.253493883627849304e-01,-2.395831669555334442e-01,-5.100418235604132766e-01
-1.300710218642041893e-01,4.273860473102975011e-01,6.099556187444866717e-01,-3.967266491776322290e-01,-2.892620050773765938e-01,-3.619453915654852194e-01
-1.455324293837399474e-01,3.910379668067774372e-01,5.431115880946317809e-01,-4.527002289566806614e-01,-1.763816506907928128e-01,-4.790354585760981942e-01
-1.415207096326075165e-01,4.713283865140371343e-01,4.347052636587825925e-01,-4.327482426415367733e-01,-1.704489375150050057e-01,-3.682937795722711627e-01
-7.103531252247745342e-02,3.876496625314625466e-01,3.363477941547022843e-01,-4.958617320912741544e-01,-2.884677988506233470e-01,-4.157607886064229596e-01
-1.741592410731818696e-01,4.807529074647731715e-01,4.617817289210321974e-01,-3.855809574929325301e-01,-3.187534935347230980e-01,-4.206106286667760097e-01
-1.016837101495409457e-01,3.578985081968394377e-01,4.847339004133272011e-01,-3.477450185506462121e-01,-4.499259347620597205e-01,-3.058873789904242302e-01
-2.205793417317948868e-01,4.467122690929248296e-01,6.063237590279256795e-01,-5.479949579385892111e-01,-3.876458298399061420e-01,-5.426041136893022809e-01
-1.138762715454735702e-01,4.444586776331319600e-01,5.839107445560344223e-01,-3.933748978453092682e-01,-2.680901306113926963e-01,-4.570194514975325362e-01
-1.034442310093092177e-01,4.065150234077588021e-01,4.480190834519495180e-01,-4.528238566174767610e-01,-2.527247358723883064e-01,-3.182801184108656756e-01
-1.664567587097406931e-01,3.711848788197240623e-01,5.029030760675656797e-01,-5.741203289576035651e-01,-1.797534413431544076e-01,-4.272309408470978398e-01
-1.206762181043390947e-01,3.899769379115131662e-01,5.089381422330471194e-01,-4.837656303048873396e-01,-3.603531111130768294e-01,-3.270441025671935176e-01
-2.448503181080563806e-01,5.245873889479951702e-01,4.228550131019511715e-01,-3.786651555665073166e-01,-4.095911668733658306e-01,-3.499507243705853310e-01
-1.328302286674916399e-01,3.217940092613139624e-01,4.406106092569728183e-01,-3.855363838861243231e-01,-1.407858364705261156e-01,-3.699318206646282636e-01
-1.652750685696598165e-01,4.389968087219123793e-01,5.170342954514308698e-01,-4.228373647458751883e-01,-2.541176869874008371e-01,-3.626697558029982060e-01
-1.010684465107027641e-01,4.197583430104037117e-01,4.226903429991925587e-01,-4.950886193929060486e-01,-2.318134791720589116e-01,-5.251118732914792364e-01
-1.701019638380984744e-01,4.827433066965903796e-01,2.676346931023894093e-01,-4.993799304502877234e-01,-3.484186559543239192e-01,-4.874108431573276889e-01
-1.168713114511398254e-01,5.450929140526525885e-01,4.561170199483803311e-01,-4.580623591213056067e-01,-2.703169585541112530e-01,-4.986447928155263720e-01
-4.792928375738450542e-02,5.378585293725023364e-01,3.728059905987842204e-01,-6.080225479138994249e-01,-4.572876008943701498e-01,-2.107360469695995220e-01
-2.360478063286959027e-01,4.395250880559611328e-01,5.160849192661184359e-01,-3.280133712160819837e-01,-3.644415787617389935e-01,-4.527935982314442720e-01
-1.070637338837756442e-01,3.600067596687310800e-01,4.766663055511288771e-01,-5.848577616861798667e-01,-2.373970602668096785e-01,-3.450659608896787800e-01
-3.666427944711216080e-02,3.619176961588915775e-01,5.239020383453893981e-01,-5.356673056788439080e-01,-2.992983655167285040e-01,-4.825214722989845106e-01
-1.775564800927233178e-01,3.322311073563895545e-01,4.957489473650431577e-01,-4.256258594102816373e-01,-1.916074030250604077e-01,-4.557804797322272949e-01
-1.703580141001168058e-01,2.602854982604979606e-01,4.956394159003415512e-01,-4.514398095335799832e-01,-4.095799772125713334e-01,-3.634707616458577317e-01
-1.714207479849757798e-01,3.039236470910085530e-01,4.089598647631145778e-01,-4.416270755521879976e-01,-3.350281526383613317e-01,-3.986204048954918311e-01
-1.634840917610710931e-01,3.578361168222338740e-01,5.300703912537545470e-01,-4.247065178946915487e-01,-3.246394883220489747e-01,-4.134956281003978606e-01
-2.260478450829535857e-01,3.630579110537001664e-01,4.201055118902228824e-01,-5.380211002427908173e-01,-3.115938531918654442e-01,-3.384298809724752832e-01
-1.550504665637970625e-01,3.960812009837659797e-01,4.531377339027764517e-01,-4.980013504299062310e-01,-3.634511686008716214e-01,-4.438701043560144277e-01
-1.915858898389201925e-01,4.251498897106390507e-01,5.721954975588220416e-01,-3.550808495291488676e-01,-2.511397481195308257e-01,-3.897854420328883407e-01
-4.194700683991577084e-02,3.415160255873284645e-01,4.357092774709921401e-01,-4.603953807665931430e-01,-4.127083038167663753e-01,-3.771846496083169908e-01
-1.821441867389424485e-01,3.386790542555389028e-01,4.469776837806901382e-01,-5.546469373710414263e-01,-2.619594848818524446e-01,-2.815369023255130942e-01
-1.083880662751027651e-01,3.311195552590319169e-01,5.205760621680435296e-01,-4.198402275068223721e-01,-2.470591651730670024e-01,-4.140079316552202626e-01
-1.529915961529197954e-01,5.641892955606537807e-01,5.252111851971937861e-01,-5.500317600811860386e-01,-1.921963564026384075e-01,-1.792297167573231320e-01
-3.998192114865149749e-02,3.505990031475184621e-01,3.411874897341909407e-01,-5.056422602726262649e-01,-2.887697619076123878e-01,-4.195818168378355750e-01
-1.160434449941662588e-01,3.584318879305602445e-01,3.860208084449434640e-01,-5.371816468358061591e-01,-3.390297218496294285e-01,-3.181581906267805793e-01
-3.585817453523187925e-02,4.177596533744972196e-01,5.431243141064933111e-01,-4.295644400280663744e-01,-2.785238673404126231e-01,-3.118239155508862326e-01
-1.403774007693741055e-01,4.297874485214042140e-01,3.428866592762185861e-01,-5.142733254309594937e-01,-3.408569402158162509e-01,-3.266260939605136193e-01
-6.337192408667184640e-02,5.057760264230526381e-01,5.520027405597291992e-01,-3.785785596686986332e-01,-2.786145523694609216e-01,-3.747600679509545674e-01
-1.739750375209047628e-01,4.749646876695459707e-01,4.426975630469371370e-01,-4.981436073920462171e-01,-2.768309695175327767e-01,-3.883977443301234178e-01
-2.710717343574262084e-01,3.324966121303550293e-01,4.802260132826736694e-01,-4.560418386254325718e-01,-2.969647032508794804e-01,-3.055731533003901434e-01
-1.222753033426252078e-02,4.630001271349442060e-01,4.468365642870811838e-01,-4.023153823107853966e-01,-4.037821424030983430e-01,-4.209915842967855149e-01
-1.544659218579291227e-01,4.510557011485696322e-01,5.625649631912038595e-01,-5.115888355773027252e-01,-1.314795631282452415e-01,-4.290330541143256293e-01
-2.554937651675388000e-01,3.487682792567861623e-01,4.574897258434921787e-01,-4.801076044114169772e-01,-3.383965849322803643e-01,-5.044639311226161160e-01
-2.163057195859642567e-01,3.153673733880886787e-01,2.657057781452266121e-01,-3.242904746470707256e-01,-3.494611312196310715e-01,-4.995160891791725066e-01
-7.605649081458559779e-02,4.440247063409935024e-01,4.852458582896213568e-01,-3.734852527637597674e-01,-2.859694934016221435e-01,-3.986251359130940086e-01
-1.075300410645017302e-01,2.190876633335932799e-01,5.349819948703775641e-01,-5.666393070946355026e-01,-4.044971915049079825e-01,-4.309476654505754456e-01
-6.135155467525399420e-02,3.146758529825954831e-01,5.461013736914444028e-01,-5.115894474024009764e-01,-2.773614102006383142e-01,-3.138937206775959665e-01
-9.336444692830891956e-02,4.458151329852568234e-01,5.515526024092358703e-01,-4.566747636351851658e-01,-2.676610082746601060e-01,-4.648692724359762551e-01
-9.464956669298121850e-02,4.315972915684929134e-01,6.236621301179106069e-01,-7.315657703020517211e-01,-2.926253458361319781e-01,-3.182464796403838281e-01
-2.063305127465795141e-01,3.455301633250770221e-01,4.833890766912308790e-01,-4.399828600820988589e-01,-3.780359160495537774e-01,-3.363262754418255285e-01
-1.662748338858238417e-01,4.543028884979318782e-01,6.200233770990513094e-01,-5.896980459980992739e-01,-3.509728999280953277e-01,-4.719918876491432380e-01
-1.184024592675018972e-01,4.559842929805553724e-01,4.885170198915319006e-01,-4.597260665944597480e-01,-3.089269814287969873e-01,-4.394706902119771552e-01
-1.619474937336649323e-01,3.782397343377146282e-01,5.053866232170991513e-01,-3.920162325449827456e-01,-3.084122666435053506e-01,-4.092204474275775716e-01
-1.891786445966799068e-01,4.108316335308241363e-01,5.272626689034587422e-01,-5.158431790128101824e-01,-2.707921533246778756e-01,-3.740446244980360491e-01
-8.072692577037474115e-02,4.039334095933611035e-01,5.366834642645589293e-01,-5.748857066523899162e-01,-2.101933084662112594e-01,-3.548464328900687859e-01
-1.091750317356936645e-01,3.474303998565857476e-01,4.057220838427124665e-01,-2.350560648262608743e-01,-3.467254177989004815e-01,-4.035932416507726495e-01
-1.480746365344014492e-01,3.827159532553950361e-01,4.646953600749325619e-01,-6.583782958448418654e-01,-3.833886837629019162e-01,-2.837199928534376303e-01
-1.044104712152939818e-01,3.581950014472199961e-01,5.096001591239452955e-01,-4.684151656566823418e-01,-3.702938606661356769e-01,-3.973711236376371581e-01
-5.769251102521130714e-02,3.272302359263307148e-01,5.655000319397942565e-01,-4.609412797837892373e-01,-3.673987812353590732e-01,-3.721929696025209067e-01
-1.465874637351454457e-01,4.174043237731788758e-01,5.467754267965926340e-01,-5.993077836592969332e-01,-2.988683147925180750e-01,-4.910589903627098907e-01
-2.228758724179762118e-02,3.718905695486671159e-01,5.885143685310137984e-01,-4.668379537298046333e-01,-3.178908368908388016e-01,-3.950173975257059711e-01
-1.304212435818249138e-01,4.981695316962927444e-01,4.751240139742249347e-01,-4.671667195656524774e-01,-4.244867938838934318e-01,-2.116501111531366441e-01
-2.168757212325799488e-01,4.206635965503329189e-01,3.891051841618112239e-01,-6.081956938500014953e-01,-3.265116048276294758e-01,-3.211249071280360967e-01
-1.443061356169097476e-01,3.793764216591870020e-01,6.184211005048600995e-01,-6.112478322310817003e-01,-2.409322393596316503e-01,-4.280696811583776795e-01
-1.462444971234843627e-01,4.682721010843849396e-01,4.519704527419727280e-01,-3.928705310455907762e-01,-3.180250771396045950e-01,-5.318882430028663011e-01
