F0,F1,F2,F3,F4,F5
4.226594082478140613e-01,3.310737445424141168e-01,8.394249550083698885e-01,-3.579475331176923403e-01,-7.742038037645833093e-01,3.526840481250417825e-01
4.052252373154910936e-01,3.442821816785036071e-01,9.197295996999876877e-01,-5.125309274372873425e-01,-8.014091564075791485e-01,2.414665462407146745e-01
3.986242667344724322e-01,3.843335840621630028e-01,9.606050296893693385e-01,-4.236814130741918816e-01,-9.283355451894883537e-01,1.573978276460115400e-01
5.038373843542935937e-01,2.242180739750585516e-01,8.804850204346992282e-01,-4.534068826752091774e-01,-6.892946934463777264e-01,2.875337002373087314e-01
4.797406110088506814e-01,4.600568101604569637e-01,9.188399900151869026e-01,-4.763431016228432124e-01,-8.655891402635038645e-01,2.171493918582554083e-01
4.649182622748552762e-01,4.675299611879142891e-01,9.777039039813829602e-01,-4.465734946656828575e-01,-9.391754032519722406e-01,3.176312527646018014e-01
4.500330511795911925e-01,3.257172013114761344e-01,9.617845170557485224e-01,-3.630513996768724994e-01,-7.132637084300642583e-01,1.813462909761410780e-01
3.838811445235764674e-01,8.167483354219787217e-02,8.498042094193691831e-01,-4.974798363889473274e-01,-9.177825883200233514e-01,2.146661977059380888e-01
4.601687550037809049e-01,4.214550962547194968e-01,8.901037800961338897e-01,-4.789847914790936745e-01,-8.340754597133241965e-01,2.570461482424078459e-01
4.034049519860516964e-01,4.067253108320645349e-01,8.100536093222332479e-01,-4.626607229829526324e-01,-8.532687035294834743e-01,1.753701956093741965e-01
4.135255174555456659e-01,2.872810014297175751e-01,8.533831156096589599e-01,-3.612933986991859747e-01,-8.941440563047181600e-01,1.848778723515824562e-01
5.083394783139424389e-01,3.499981548871334835e-01,1.048413705498483228e+00,-5.542243503187419540e-01,-9.281018522316459851e-01,2.906659221086832501e-01
4.348777099094653931e-01,4.861538966880077917e-01,8.332019263409421450e-01,-2.929447890999345994e-01,-8.433472189676805009e-01,3.135474594398809933e-01
3.214086564605426188e-01,3.519684307171178084e-01,8.517140720193581149e-01,-3.887866098857322705e-01,-7.324223927757463892e-01,2.653732100922692738e-01
4.494601275797140971e-01,3.242196426550633670e-01,8.975968446001206802e-01,-3.800779330138507328e-01,-8.452997787370392091e-01,2.197779923226437782e-01
4.218132727937863868e-01,2.075328759575396920e-01,9.793423293595876489e-01,-4.042546367934095608e-01,-6.595110963444253960e-01,1.226981894392776551e-01
2.438807960186867019e-01,3.913338022249630566e-01,8.010359159729075751e-01,-3.859282128386000155e-01,-7.718584720637279295e-01,2.886853176366390716e-01
4.653829960691302503e-01,4.314914474396858712e-01,8.457583961603302170e-01,-4.101213601849209023e-01,-7.825262984508732922e-01,2.062318081279586601e-01
7.857649620736697482e-01,6.526025671748854062e-01,-1.384990501576636446e-01,-1.019271033605009813e-01,-3.805190580281043733e-01,1.116431860667910503e-01
6.974528123758596543e-01,5.970346026185170407e-01,-3.856455561399678433e-02,-9.753339856581930145e-02,-2.315406346459326081e-01,-1.243868665423789877e-01
6.514414954234456490e-01,6.352065829977004974e-01,1.296101956734503971e-02,-4.160136207004887232e-02,-2.793043915925035869e-01,2.087480883174077650e-01
5.113491875430986600e-01,6.102478239983798458e-01,-8.919478325731888813e-02,-1.923455515979295705e-01,-4.945146618299923746e-01,3.279611112014017144e-02
6.641622534329719718e-01,6.276070944753703307e-01,-1.226429951334778168e-01,-2.521304982549478213e-01,-3.150898272830503499e-01,1.936881054180345646e-02
7.203178572988799822e-01,4.452204553805211851e-01,8.739334001112514239e-02,-1.163813137906304224e-01,-2.399087084842976281e-01,1.854742481626289186e-01
8.186744289518042006e-01,6.584077084259546409e-01,3.922631834753870922e-02,-1.289379978040924302e-01,-3.174661158959642404e-01,-6.235978004626599458e-02
7.978213109621968835e-01,4.964483199062478258e-01,-1.808216450561515865e-02,-1.898527697749555765e-01,-3.491841193196885129e-01,8.780878542104846030e-03
4.408067064865935913e-01,6.704972747931017274e-01,1.678974561109754758e-03,-1.227758727077383621e-01,-3.239859584616898158e-01,5.122260965860883641e-02
7.201413359726507313e-01,6.300465475720757880e-01,5.633423598286912970e-02,-2.284676487984944881e-01,-3.077873058265566675e-01,8.668810555482811542e-02
9.683085494318686148e-01,5.322653930187580817e-01,8.907059509746472620e-03,-1.681760447928009050e-01,-2.824758033765581988e-01,7.526454723803083224e-02
7.586727506152407541e-01,6.573475507018722297e-01,5.265061606285014600e-02,-7.352174326082817901e-02,-3.987154110977136345e-01,-8.330963234954069652e-02
7.951712044177189354e-01,4.858135062705337681e-01,-2.867160498058281964e-02,-2.139595945205690075e-01,-2.846543794214189682e-01,1.265005580198986790e-01
5.618509730366784138e-01,4.924659824840468270e-01,5.400865376777089048e-03,-8.589003519753327098e-02,-2.174431507711544476e-01,1.209570958899461451e-01
6.234079108328840491e-01,5.250087329625294785e-01,-6.332442317426756340e-02,-5.064134636031618342e-02,-4.246826932592003834e-01,5.533136905345429485e-02
6.987169600357659993e-01,6.289634464150608562e-01,-5.237347947976421503e-02,-9.766615636914741105e-02,-4.186420962796378320e-01,8.483909985515944441e-03
8.776636497325278619e-01,6.296605334136535781e-01,1.065122078980717396e-01,-1.677913916512029091e-01,-2.288888458035912565e-01,-1.445747557399554295e-02
9.294043017670736706e-01,6.194785449871208494e-01,1.414433711102251190e-01,-9.258064439666642553e-02,-1.967504983327418855e-01,2.822904909257709094e-02
6.377510330446366504e-01,5.812353940416179476e-01,-1.881820694869889565e-01,1.356893866096917090e-02,-3.819010580105396402e-01,8.266379319346245369e-02
6.966020411407435331e-01,5.828268398821844221e-01,-3.351305257353745515e-02,1.636685234437071368e-02,-3.791141101289960957e-01,2.426704393037418597e-02
7.800799384968973849e-01,5.101829301462220689e-01,5.754018880580848150e-02,-1.410738044575129690e-01,-2.386882724164717251e-01,4.006659380385616670e-02
8.613863354423408891e-01,6.557464985369467758e-01,8.761180990634019616e-03,-2.665723741637566757e-01,-2.099690134235193406e-01,6.334006384187136629e-02
6.742259301061356291e-01,6.996934148257356600e-01,-4.809744691559454666e-02,-1.421740940353086458e-01,-3.524436217801517612e-01,4.878234251988526615e-02
-4.785593894964915718e-01,4.946634528291984911e-01,-8.881706584959715434e-01,2.506682059276413854e-01,1.765749876205788271e-01,-7.352950925060874887e-01
-4.726305329208719819e-01,4.093565074091392031e-01,-1.048097182720935105e+00,3.531703523003322243e-01,1.774890842645948652e-01,-6.865557486300986056e-01
-4.471261590895138083e-01,4.328510597874152821e-01,-9.250671066895879147e-01,1.077029221042035689e-01,2.423497883721504320e-01,-9.127968003433211130e-01
-4.725163791791857637e-01,4.704610476827313370e-01,-8.620715005992675151e-01,1.412192574368434372e-01,2.619981652512780590e-01,-8.734339258984646914e-01
-2.675807915041777951e-01,5.501837547984516075e-01,-9.813303320611933556e-01,2.625256801287818575e-01,1.196182214366411645e-01,-8.275216646461326375e-01
-5.134434385589987659e-01,4.035337635453143945e-01,-1.076961546229731947e+00,1.237087812358532296e-01,7.343801662025999100e-02,-7.231505232057735544e-01
-4.402617714740738042e-01,3.880597030357944566e-01,-1.020927850868412312e+00,2.476350340370959691e-01,2.513668013678759250e-01,-8.364772368724801010e-01
-3.414307744439413761e-01,4.212356741145607542e-01,-8.545609848873937375e-01,1.102826320993212372e-01,3.687661544943638958e-01,-8.414664106013232114e-01
-4.718504742515143846e-01,4.749366094143425698e-01,-8.503961287557841864e-01,8.995588744528246194e-02,1.826384852166592354e-01,-8.297580757778799665e-01
-3.905621414693787319e-01,4.490414652028225095e-01,-9.247854099852899079e-01,1.132584136174405592e-01,1.449523804819878858e-01,-7.103411711518616833e-01
-4.855867366776242533e-01,4.116878401518876407e-01,-7.807989222328196588e-01,3.315535861878131652e-01,2.539271901989637592e-01,-8.353793538507795491e-01
-2.616061149278737785e-01,3.137510900994994190e-01,-8.895812626417707314e-01,1.265750068686124497e-01,1.762791197690620204e-01,-5.926341839896838160e-01
-4.118840524661648295e-01,5.000590304468708336e-01,-6.375883097458105997e-01,2.542888260362456965e-01,2.786969109938123301e-01,-7.767682878451042106e-01
-4.756138898056838649e-01,5.201714256105138823e-01,-8.471044493477437598e-01,2.136656848312848134e-01,1.718579275740099721e-01,-7.801191000836286138e-01
-5.982778941946820250e-01,5.550415259735733686e-01,-7.855670890337594914e-01,1.462540361517812026e-01,1.742332957945939564e-01,-7.717450986839026195e-01
-2.736250680916493261e-01,4.945824381436821904e-01,-7.809913796105240058e-01,1.676911108788113336e-01,2.149372270264121310e-01,-8.720871979013888886e-01
-2.805908566031621310e-01,-3.274962630527944452e-01,-3.123528174504242028e-01,-6.344088884822288166e-02,-1.418409630147519918e-01,1.631025500162546216e-01
-2.723192438973877083e-01,-5.445765845449062059e-01,-3.279789700039578704e-01,1.312317645063654226e-01,-3.544316290316967266e-01,2.376996194576899424e-01
-3.187471928959042522e-01,-6.821916031441397354e-01,-2.234359566800840080e-01,1.997588016358085306e-01,-2.530252005478395017e-01,2.394714827275972735e-01
-1.684734246795816237e-01,-5.850910732730855157e-01,-5.093572852792079830e-01,1.331551226052313797e-01,-3.051662358711011436e-01,1.493106308596041099e-01
-2.710956673094211400e-01,-5.349462314615682779e-01,-3.451359630217145646e-01,1.678033415877855927e-01,-3.339289152014838225e-01,1.925411263066964807e-01
-3.322513703382794503e-01,-4.228691306268719252e-01,-3.452517245334378315e-01,9.741086015341758608e-02,-2.615555893013747912e-01,1.422085036791505552e-01
-3.297620669117813375e-01,-4.544878860141813304e-01,-2.735498225481893253e-01,2.434845941110871936e-01,-3.359433220178156265e-01,1.545008772913405992e-01
-3.111507084609194118e-01,-4.490027200069140467e-01,-2.653174667304866174e-01,-7.132799344166856903e-02,-3.359976120953301337e-01,1.084054486473887274e-01
-3.658301033778061928e-01,-6.114614326566076841e-01,-3.702421828158714012e-01,1.013406505149918174e-01,-3.492247322763911699e-01,2.004222036686309771e-01
-2.746768340919070184e-01,-4.877919316008996198e-01,-2.802815756893599630e-01,2.342402678341189703e-01,-1.863800212462041750e-01,1.964031928819026107e-01
-3.599285362739312322e-01,-6.857944186868553116e-01,-2.674023035345318711e-01,1.831293456882260029e-01,-3.809507479636033977e-01,1.147401784031810007e-01
-3.841131719678445577e-01,-5.464789153520358544e-01,-3.224796926547060516e-01,1.200338612370459024e-01,-2.364140433779253481e-01,2.657160451859104655e-01
-3.115996615193438180e-01,-5.398816866043254503e-01,-2.514386814000670878e-01,9.085084318597502762e-02,-3.419446418812707167e-01,1.462149903202381584e-01
-2.723246904178517336e-01,-4.064044634706857617e-01,-3.241728624161706040e-01,2.619216769444682180e-02,-3.232835310412318086e-01,1.544515811628327517e-01
-3.375664070063011946e-01,-4.862734059340637627e-01,-3.576322624426174213e-01,2.662163837110181897e-01,-2.523910632654129405e-01,2.277835185492939618e-01
-2.773605127865534925e-01,-6.904289557480920436e-01,-2.583571617555143751e-01,1.090011883019423311e-01,-2.465940656031767320e-01,1.380312877350323153e-01
-2.492608288858257359e-01,-5.982374833124275426e-01,-3.901044757965898557e-01,-6.119744682515743106e-02,-2.609178030982534091e-01,3.633328681542932759e-01
-3.173926543988686011e-01,-7.037770560051178625e-01,-3.709581321017453304e-01,8.759509578002874775e-02,-2.582686436263507690e-01,2.183098924459514756e-01
2.207320708553884292e-01,-5.964544041873744151e-02,1.888656629692454098e-02,6.538002138885428138e-01,1.871938860317083342e-01,1.435896778712052457e-01
1.342548518609491537e-01,-2.249747479505351255e-01,-9.905733425319300511e-03,5.791350852716562470e-01,2.127653944130599717e-01,3.572887108283856472e-01
2.547556922073154206e-01,-4.008407175640071873e-02,1.591704514817212923e-01,5.864589500856826065e-01,2.415841754800839847e-01,2.279067778124789223e-01
2.888886061270419803e-01,-1.408585814890823962e-01,2.095037670206355979e-02,4.786936057550746360e-01,2.283439632264329666e-01,1.555778323719952116e-01
1.539768747168438201e-01,-2.175478057490533024e-01,6.715647191822475548e-02,6.039090978938141951e-01,1.442242074295512488e-01,2.728526183314557430e-01
2.343095108558418960e-01,-8.346449969328166574e-02,8.184171100801503063e-02,7.346753659598058706e-01,2.060958741468007505e-01,2.313662291874075128e-01
2.622043521817228329e-01,-3.399833124975404353e-02,-4.980426547376595736e-02,5.771680953682740700e-01,1.538273339079077595e-01,3.403722687754976439e-01
1.838868481567993984e-01,-7.722397704808887930e-02,-6.296323595593966704e-02,5.037224415140088007e-01,1.724290839094793915e-01,1.665255735110054147e-01
1.912463951516224780e-01,-2.931081642957431010e-01,-2.238344791433610065e-02,5.950746061953905430e-01,3.609134840472519867e-01,3.344814000737890702e-01
3.779630744959315281e-01,-7.244945975292757523e-02,-5.724392278229049891e-02,6.569501426341837202e-01,2.170493814512030051e-01,2.555740082493786480e-01
3.159600047767130993e-01,-8.685041438841603623e-02,8.508817127429342542e-02,6.953980629352205511e-01,1.524067889588869296e-01,2.647658416942189064e-01
-5.915043691286068217e-01,8.532150874119162065e-01,-7.226269496667018233e-01,3.671882893825578753e-01,8.314588283983481709e-01,1.304508998131453656e-01
-4.504460922921100785e-01,8.639315579039942294e-01,-5.485325752474977667e-01,2.531366894044068672e-01,9.235656986703837390e-01,-1.006795107250405691e-02
-6.193153314456906200e-01,7.036742792410863867e-01,-7.914147472302011099e-01,2.611198012727553586e-01,7.161884077789189007e-01,-3.926503381916787716e-02
-4.981738146257082556e-01,9.103825300488962435e-01,-7.329880530579926390e-01,4.067635106803123013e-01,7.792375289463553401e-01,-6.751045893739246462e-02
-6.674659508800981911e-01,7.196486283422685037e-01,-6.339529197899826940e-01,3.582356580210125929e-01,7.565188260206076043e-01,1.216694294023730194e-01
-5.422344867396977630e-01,8.202846410841089231e-01,-5.837763323364116852e-01,2.778373545688512802e-01,7.184508138355132356e-01,-7.324501325191630496e-02
-5.501747204160729598e-01,8.616434524944379669e-01,-6.060594666445539014e-01,2.712373993436684172e-01,7.391720730461033284e-01,4.013066814026123447e-03
-5.128603620729026424e-01,7.724891803078602903e-01,-7.518650971107236902e-01,3.046158843627832513e-01,9.337071728206222110e-01,1.422175543399522082e-02
-4.094425008716903180e-01,1.064001866960680331e+00,-7.090476536725710544e-01,3.009625088046878894e-01,8.550870529549081667e-01,2.859773912104716584e-02
-5.676733368689325099e-01,7.839843836307762714e-01,-7.828534931057076207e-01,3.421483133444208624e-01,8.243717210906676973e-01,1.148790208153039061e-01
-5.531106237796938885e-01,8.167746450548717396e-01,-7.899885108042552506e-01,3.409542179996346567e-01,9.862973467133764327e-01,4.296158967193539069e-02
-3.146595801966532435e-01,7.337268768187975576e-01,-7.433833059980660130e-01,3.935605317006533044e-01,9.253979708547719341e-01,5.065134819127079663e-02
-4.412174679495990959e-01,8.869156117916296989e-01,-7.292661034309170232e-01,4.274853206137969042e-01,8.566307093796917682e-01,2.828069998973758437e-01
-5.208749485844424987e-01,9.692067674742508299e-01,-5.687877673816117419e-01,4.674690794805188010e-01,8.759368822478335037e-01,3.954699380836278894e-02
