F0,F1,F2,F3,F4,F5
1.807131349677160992e-01,-2.877376142165887218e-01,2.108168101048089882e-01,5.967592926510323359e-01,-7.150908065217256304e-01,6.938035783701588244e-01
6.196324874310746300e-02,-2.620364849629320259e-01,8.743220609667351484e-02,5.058149111599855585e-01,-7.975504774423517462e-01,6.761780350591535260e-01
2.010398614557722952e-01,-1.668222900977142098e-01,5.486365662039223434e-02,6.263690196708968649e-01,-5.819435592003057156e-01,6.910116781604480618e-01
1.566064901143083554e-01,-2.735095187565999009e-01,1.599231350719904632e-01,4.768097092262753023e-01,-6.998253913504274282e-01,7.556812859934363136e-01
6.047164560868532879e-02,-3.877199853466733459e-01,1.493266224074726034e-01,5.656587336973925018e-01,-7.178688766119508680e-01,6.501339202497470326e-01
1.603166629339055349e-01,-2.536640824735467148e-01,1.299323118873918215e-01,6.514656260675972810e-01,-7.610985346407324048e-01,6.034104961239465936e-01
2.652561778857215335e-01,-3.348379405788056706e-01,7.464696001821785609e-02,5.000379807846814240e-01,-7.409028687973701066e-01,7.008968919555065291e-01
1.581224759069159436e-01,-2.453514609591027074e-01,2.036852740124406869e-01,5.166795501388546930e-01,-6.483922879652864735e-01,5.390583744705149671e-01
1.308226818196983332e-01,-1.499106306362991969e-01,1.120202245535783653e-01,5.286981484035133683e-01,-6.764739810249662533e-01,6.541959943710898839e-01
1.577926137482476010e-01,-2.825715314164338743e-01,1.433282765921141400e-01,5.930519544386011477e-01,-6.812273534674462283e-01,6.395190558854220164e-01
2.144862560059325185e-01,-3.014639188837109907e-01,7.163802135324592868e-02,5.262095671023984123e-01,-6.186589035188421182e-01,5.830219817704221930e-01
1.910936425335513222e-01,-2.598835102959900500e-01,7.098277143704685710e-02,5.649671340473381154e-01,-7.223212214012050270e-01,6.605368497484499501e-01
1.565996094398173777e-01,-2.901867958140199044e-01,6.391670238945861005e-02,6.056150414291234796e-01,-7.248126882890012501e-01,7.119552264461873614e-01
1.681483669507170264e-01,-1.936414731829878555e-01,9.023723367460571854e-02,5.277706812305484885e-01,-6.747079643165683205e-01,6.205444850144988811e-01
1.549958576572188496e-01,-2.401824593571036948e-01,1.107298651191207101e-01,4.635451094424259399e-01,-6.604144729674031877e-01,5.263611821041492833e-01
1.204717778845421361e-01,-2.391579060822915936e-01,1.481576679138041641e-01,4.916663015356799726e-01,-7.430401800650731081e-01,7.033192031696369195e-01
1.211299157618990624e-01,-3.481424992555758324e-01,3.825636073186250430e-02,5.102218880211155660e-01,-5.802249639158583161e-01,7.190573197309777509e-01
1.227668372742796027e-01,-2.924104624498982674e-01,1.655122502277290852e-01,5.543104386357610158e-01,-6.825656833810276325e-01,6.814720512114916806e-01
6.352601422445004753e-02,-2.799948430299351032e-01,1.482437004467119512e-01,6.127677083044184014e-01,-8.234563495700275570e-01,6.106246947144454706e-01
8.663858556225043084e-02,-1.980036281713469792e-01,1.767596162660645953e-01,4.988969017388662497e-01,-6.393512220207283603e-01,6.807874900753326797e-01
2.156320938828514000e-01,-3.503222068482732543e-01,1.807936547177569353e-01,5.786016269584179916e-01,-7.891696527932074989e-01,6.641142467310033881e-01
1.923976593374022437e-01,-2.600606946542805553e-01,2.123808477985902887e-01,5.904343783487513431e-01,-7.332805779762685550e-01,6.320011591839681531e-01
4.475630909161076865e-02,-3.643551401992290439e-01,1.637499943390487156e-01,6.116597397632885791e-01,-7.403054709115330922e-01,5.557832412948294776e-01
1.406265389115503028e-01,-1.340105574274252642e-01,7.807473511575825642e-02,6.023500388291129770e-01,-7.226954702181895840e-01,6.146039747036468048e-01
1.748994752276855080e-01,-2.346578518967247506e-01,1.027199944211735771e-01,6.744092677252457868e-01,-6.668494090441570155e-01,5.583884649607931960e-01
1.458834793667436736e-01,-3.011059303480940197e-01,1.346549455461076572e-01,5.026210693160525489e-01,-7.517005533652293403e-01,6.339056402496366927e-01
1.463967770381728872e-01,-1.589463892341078100e-01,6.358608784050749640e-02,4.812228258135136660e-01,-7.287030291798737291e-01,5.624900317765082480e-01
1.082887949490311530e-01,-2.774254262214382871e-01,1.699066775627019465e-01,3.836012111497671961e-01,-6.801407192256004874e-01,6.141608112740127856e-01
5.545849208528112750e-02,-3.387102562402467543e-01,1.217104475141461972e-01,5.242128683495614894e-01,-6.885463075827320534e-01,5.463594099554839323e-01
1.762324989130895636e-01,-1.282319546575172442e-01,1.471236195160052773e-01,5.894553178384155379e-01,-6.800032762089250893e-01,6.681766992339515099e-01
1.790860024304837261e-01,-3.413898615297839001e-01,1.793700561192922427e-01,5.643599691258740503e-01,-7.294797548748442884e-01,7.038474770753762044e-01
1.467669358098718790e-01,-3.015770493229703586e-01,7.428782512567597140e-02,5.326190328033139076e-01,-6.037878654639600162e-01,6.475315967074254386e-01
6.045037233569096335e-02,-3.588662881548416728e-01,8.302529622973919832e-02,5.690667879619094593e-01,-8.058162884078414745e-01,5.938491939673563591e-01
1.337596959246416806e-01,-1.497156667467256508e-01,1.233273631993630770e-01,5.090585737200360450e-01,-8.093699962837513917e-01,6.382573654566590093e-01
2.430880601770186167e-01,-2.809308723707591993e-01,1.502885832815020473e-01,5.711210230828366319e-01,-7.641719338455245092e-01,5.484506654925211944e-01
1.834640332783228356e-01,-1.499635223065749479e-01,1.927193822460561978e-01,4.930728063533007521e-01,-8.113056308774074799e-01,7.202188525812756037e-01
1.863285971164068411e-01,-3.221368138140820458e-01,1.331021282608421119e-01,5.201700572616301255e-01,-7.373459589336510689e-01,6.263461667646880171e-01
2.821749049490357431e-01,-2.829313364429804634e-01,1.382692562329783659e-01,6.359938510984348703e-01,-7.590921440707690815e-01,6.771908847937554432e-01
1.129218418648331862e-01,-2.972003582005917632e-01,1.625664396125959810e-01,5.737345500119576114e-01,-5.850395461692921018e-01,5.770857535706386265e-01
6.519132845992994807e-02,-1.746636055043633284e-01,5.500275341503063631e-02,6.220407941410961428e-01,-6.619827921311032259e-01,6.719966471569635003e-01
6.872215204703066571e-02,-2.410439975545498326e-01,1.102605105144207065e-01,5.459521888172533810e-01,-6.506338827529446478e-01,7.181686664493743821e-01
1.719722861703718297e-01,-2.674637448630957648e-01,1.655398803650189321e-01,6.475555928345335666e-01,-6.111462288877594906e-01,7.455580639532297660e-01
2.004077899180384259e-01,-2.241082738843401256e-01,2.581689600762490100e-01,5.919984990435273042e-01,-7.324412045744030930e-01,6.800369994519583905e-01
3.528232420543582493e-02,-2.279703210158702809e-01,-1.094100156466959461e-02,5.023850751226854872e-01,-6.863182516272441358e-01,7.094674722189857619e-01
2.049962890243966773e-01,-2.415321839492685363e-01,8.032690574786059690e-02,5.322234833723837877e-01,-7.361805847219728971e-01,7.413907560897881055e-01
1.160250635008647502e-01,-3.063211021044636717e-01,7.690550817475189094e-03,5.888903300692502896e-01,-7.417670181456442746e-01,6.091277495778798512e-01
1.357069660598116956e-01,-3.213160788709175653e-01,2.729358230075735192e-01,6.088803318727871172e-01,-5.743105515563980967e-01,6.089218432697265371e-01
1.449905555668728752e-01,-2.940748116600469531e-01,1.604659100089591006e-01,6.140345920740755137e-01,-7.265553918843595804e-01,6.991258495670121809e-01
1.421222705893899485e-01,-2.337882302000943158e-01,8.968166175064784529e-02,4.662853137286192551e-01,-6.703765083534968250e-01,7.186674418124671115e-01
1.389357625882026159e-01,-3.624626661564477881e-01,5.235382721360842817e-02,4.808405119980333486e-01,-6.893950456107703628e-01,6.375999428957636050e-01
4.393337558470003512e-02,-2.738259057855255141e-01,5.750901476162841031e-02,4.890383937785333091e-01,-7.597349097890929714e-01,5.507925305021410534e-01
1.174901728437459242e-01,-3.471014910795557351e-01,1.395374827188434197e-01,4.319532210535387828e-01,-6.823427957339562866e-01,6.981680909561849280e-01
1.611030998470528997e-01,-2.997076461169659867e-01,1.297210627410678441e-01,4.999928107402720756e-01,-6.630656263540014583e-01,6.611264755295419571e-01
1.378580330511796348e-01,-2.010010848984683518e-01,2.125423287233766667e-01,4.548033053502477108e-01,-7.460462235942642018e-01,5.757576575607399327e-01
1.036094044812389814e-01,-2.598367905703293790e-01,1.808086227765892673e-01,5.580861643718330045e-01,-6.805242404719527016e-01,7.148035462838816523e-01
1.381721163142194397e-01,-2.292762846050405978e-01,1.927395738755576238e-01,5.884600189001890636e-01,-6.911195122096309706e-01,6.174292303228706702e-01
1.783689462131358983e-01,-2.834883323136469513e-01,8.039682863200972585e-02,6.247467204071222024e-01,-7.394517117787422489e-01,6.026714589239281494e-01
2.485329103394018913e-01,-3.769619081571241592e-01,1.682824067482678876e-01,4.852795806312939497e-01,-6.398339826119183726e-01,6.939067158479997888e-01
1.887708153062344352e-01,-1.564800678533180278e-01,2.456286428018570334e-01,5.051969089846954919e-01,-6.601332505959621733e-01,6.883736223423342349e-01
1.510190081457994382e-01,-3.570163355039919773e-01,1.757974578949312860e-01,5.327963357053761007e-01,-7.219027209335151518e-01,6.879527627750612329e-01
2.311871958529931881e-01,-3.181686098807787189e-01,1.963878238355034056e-01,6.062521602550750011e-01,-7.917779210385834654e-01,6.986341140664067417e-01
2.883014086314530933e-02,-3.381561938393859434e-01,1.878879249165091025e-01,5.422378678646794237e-01,-7.150870471479823243e-01,6.891981848802424260e-01
1.273857631274080415e-01,-2.649369839313211461e-01,3.623810826990012113e-02,5.332970272772575848e-01,-7.651847719760412891e-01,5.861740161081385736e-01
1.920689851299220985e-01,-2.548482052475444792e-01,1.057426272839244175e-01,4.764672072740682163e-01,-6.366845441310886589e-01,6.759327172108081649e-01
7.441984839370113791e-02,-3.636726328885785398e-01,2.164672877534455642e-01,5.254445426046766565e-01,-7.961049950835843436e-01,6.529684411392081556e-01
1.750605770579289622e-01,-2.298253574993965875e-01,1.099318113483815779e-01,5.384958296737633043e-01,-6.440032453343296215e-01,7.583624495248804109e-01
1.530071044932019841e-01,-2.853400889226490600e-01,2.604939297271479104e-01,5.643416932914333550e-01,-6.362631640013899359e-01,6.950344135120034572e-01
7.282004235209066367e-02,-1.870138451974691363e-01,1.722744180904327849e-01,4.781198651161093216e-01,-6.450335254494616866e-01,6.966060084074205960e-01
1.566088165627967932e-01,-1.933616616917487596e-01,4.988648369087236856e-02,4.661298474288492200e-01,-8.126229270935655391e-01,5.715730185278447006e-01
1.336474907034632120e-01,-3.237649504497570607e-01,1.793458352001243150e-01,5.252322705715752882e-01,-6.617332680875316342e-01,7.513841055566372606e-01
1.261272965261257817e-01,-1.605887584785326005e-01,1.286004102204336141e-01,5.838083006960708143e-01,-7.289124218857874205e-01,6.119738875515899901e-01
1.766833673917423964e-01,-2.480904585220342629e-01,6.692551008051370043e-02,4.906457139465014716e-01,-7.087633485381701348e-01,5.683317588694991596e-01
1.961784880047572899e-01,-3.110394223520318024e-01,1.752362332703771286e-01,5.183648480049130036e-01,-6.285148857733554584e-01,6.238277320199602238e-01
1.018588038079634162e-01,-2.491434139572525075e-01,6.949072713248337363e-02,5.414609938128801536e-01,-7.146537935621026794e-01,7.123101034175765012e-01
1.411439259216994146e-01,-3.190592984623501494e-01,7.833813293802943667e-02,6.047594745210908007e-01,-5.691374331113079332e-01,7.182342867819003773e-01
2.099200914152464237e-01,-2.945582104875304474e-01,1.741397168656515504e-01,5.198429163043033485e-01,-6.635591184685031285e-01,5.976257169792346113e-01
1.708168919966241150e-01,-3.173196628088894578e-01,2.410275245969996649e-01,5.836638980322231829e-01,-6.841320259584851016e-01,7.155816279364457522e-01
5.918339313958320691e-02,-2.406269364360872909e-01,1.637639717177676868e-01,4.447754569183570705e-01,-6.954047318452456494e-01,6.297022283410189658e-01
6.903077824864048417e-02,-2.241179381729833386e-01,1.857685946696085444e-01,4.524821095449474972e-01,-6.654750409923934074e-01,6.228723010768618673e-01
1.725668507681080710e-01,-2.572927112454344023e-01,9.875192387254336235e-02,5.421450638066730443e-01,-5.686375871050766140e-01,5.748581757245049273e-01
8.273892816776894088e-02,-1.935978657438506001e-01,1.272029692759683861e-01,5.323037204682506962e-01,-8.545688948903863436e-01,6.635089915557347284e-01
1.207620691224845638e-01,-1.535073746319808030e-01,1.494104255499453804e-01,5.673560306540337272e-01,-6.421797895564962388e-01,5.457275457404486829e-01
1.337645359028827308e-01,-1.093672082079548413e-01,6.288585195618055790e-02,5.064658595369775362e-01,-7.164321710550951572e-01,6.454872476700197481e-01
1.044265327149687395e-01,-2.803726177518967022e-01,3.178574469727904472e-02,5.668100656525461023e-01,-6.489619777331180339e-01,6.726055045554122369e-01
1.279384316578418279e-01,-2.288071044618436300e-01,4.543458661575557056e-02,4.787620029280142409e-01,-6.554024930437011287e-01,6.399154601424797972e-01
9.876871205566653544e-02,-1.779273835818016847e-01,1.612721996121682100e-01,4.904027178639799311e-01,-8.298569622870635154e-01,6.323769711490994094e-01
2.844986453230547996e-01,-1.815562310994406070e-01,1.741651931805027476e-01,5.403951867142010590e-01,-5.885694929148390653e-01,7.419710246357462680e-01
-6.456229622440066152e-01,-4.660277786432778235e-01,-7.588802316634306599e-01,-3.987124218101614215e-01,-4.716994942114252631e-01,-1.924286767071665405e-01
-6.324853156696629286e-01,-4.473969630174552403e-01,-5.999580982809112895e-01,-4.999411583119888203e-01,-3.429642501643623831e-01,-2.875839315101351712e-01
-7.283517091058328008e-01,-4.986531255113051397e-01,-6.370797005659508683e-01,-4.085361041196731158e-01,-3.788596947441696949e-01,-6.604873073425955587e-02
-7.335688628524172916e-01,-5.180260921641213212e-01,-6.877044899318180970e-01,-4.542631308993176353e-01,-3.219199774741517972e-01,-1.468484441870899770e-01
-6.027314481951350222e-01,-4.941320919114409183e-01,-5.283296882458065058e-01,-4.225925146755490913e-01,-4.642377106805065101e-01,-1.815596834747855715e-01
-7.197826667811502155e-01,-5.475510248524618762e-01,-5.918286401192709434e-01,-4.563188039671833285e-01,-4.330407180861630678e-01,-1.462882110850533546e-01
-6.926884234311218025e-01,-5.389860370378291021e-01,-6.898304421762756489e-01,-5.428929824346475641e-01,-4.823924418464974329e-01,-9.542067858181745021e-02
-7.107948582134622217e-01,-5.361151020534070666e-01,-5.906432084253854242e-01,-4.284398272834205601e-01,-4.825792515900759194e-01,-1.719555044796501064e-01
-7.662864984182484740e-01,-5.217912642072710661e-01,-5.441024546417050356e-01,-4.195748517858119420e-01,-4.313849306579479181e-01,-1.493216658729451807e-01
-5.700330368611041809e-01,-5.094176451021422691e-01,-7.702922783933799922e-01,-5.556771919329982490e-01,-4.014999088264208371e-01,-2.530638006180757626e-01
-7.695169659762213232e-01,-5.972241918420695406e-01,-5.918210838532367291e-01,-4.499279087197356475e-01,-4.770548067307732731e-01,-1.503004910672463001e-01
-7.059576683918890039e-01,-5.419731684918461800e-01,-6.765063945622002972e-01,-3.948499289032056381e-01,-3.916472251758317813e-01,-1.810087455292958281e-01
-6.122454837421773544e-01,-5.079327982987954515e-01,-5.614635494735135124e-01,-4.342737687225439180e-01,-4.911574416428957091e-01,-1.419856646145165602e-01
-6.294414183726457779e-01,-4.874343932207710339e-01,-6.632502773310895439e-01,-3.913260432364695784e-01,-4.028077949743787411e-01,-1.755011043418806260e-01
-7.434518901903982568e-01,-4.946823335533674926e-01,-5.923203427873259264e-01,-4.221150944695848950e-01,-4.096522302655717929e-01,-1.128626714159075284e-01
-7.436690918169078790e-01,-5.669504054164004048e-01,-6.215012905527388387e-01,-3.837376201164836020e-01,-2.844194276835678714e-01,-2.308363627734067447e-01
-7.284364012697759350e-01,-4.206655581086917173e-01,-6.358781082377877869e-01,-4.670252976507335840e-01,-3.793404040808852629e-01,-1.156292890995607170e-01
-6.866871353590494609e-01,-5.839546256617687003e-01,-5.371933288942651874e-01,-4.767636403632568576e-01,-4.304418929248466918e-01,-1.733209675200754751e-01
-6.181758197845551583e-01,-4.576669367013839751e-01,-5.384667854579415769e-01,-4.171091011206422006e-01,-4.337718755313128560e-01,-1.011613790048261768e-01
-7.136252543689695083e-01,-6.197587235235297864e-01,-5.243221105219897371e-01,-4.096365859236810736e-01,-4.448732592794423235e-01,-1.528311753063278378e-01
-6.859681275164262182e-01,-4.877145964414782431e-01,-5.251860829180940993e-01,-3.868348598451878395e-01,-4.012088230419905699e-01,-1.483039269869362853e-02
-6.974451170763579233e-01,-5.820885260501209579e-01,-8.493260086312726109e-01,-4.964300442699646765e-01,-3.809494490294985658e-01,-9.867394141972649080e-02
-6.180901390546713614e-01,-4.348803787554925138e-01,-6.569542349069747988e-01,-4.427142088265066944e-01,-2.794845691830397105e-01,-1.508002017129319028e-01
-6.846215705199933943e-01,-4.703183413041588934e-01,-5.598681924924197029e-01,-4.604702623434135944e-01,-3.335143071155814432e-01,-1.872620249604602383e-01
-7.114081347794932730e-01,-5.209117080573022474e-01,-6.992739089064325952e-01,-4.406980479482126567e-01,-4.644673052970825777e-01,-1.760981740781631388e-01
-7.784480690968389460e-01,-5.278200370200875069e-01,-6.597036949746282186e-01,-4.557400299310804814e-01,-3.221469218527667211e-01,-1.281146189627592746e-01
-6.597712466306097090e-01,-4.943303184006210271e-01,-4.176800809796908376e-01,-5.052431752730804915e-01,-4.210299944925101623e-01,-8.118576497716734064e-02
-7.132697434801696934e-01,-6.609653564074189358e-01,-5.611225407376363439e-01,-5.071339073967090494e-01,-4.605597735199996046e-01,-6.628128431822465083e-02
-6.786785297977081521e-01,-4.464639926264573622e-01,-6.542033016393731248e-01,-3.984661432206514364e-01,-4.695755657836904740e-01,-8.849749954653528261e-02
-6.862173248157492633e-01,-5.056651503086027066e-01,-7.555832807191027456e-01,-4.863929999427635265e-01,-3.739463636288917203e-01,-1.475477245012074001e-01
-7.603372186521653031e-01,-5.381897665887832582e-01,-6.525919023274378006e-01,-4.163626503061415018e-01,-5.200059561131580299e-01,-1.379218926078239482e-01
-6.912442187602970689e-01,-6.039878512216503292e-01,-5.801466181074439454e-01,-3.893760255660904113e-01,-4.337885230557664284e-01,-8.017626159954985288e-02
-7.600789876805129630e-01,-5.452853414398077803e-01,-6.289890670421869334e-01,-4.117973511843016632e-01,-4.651913401708316353e-01,-1.979005153503872461e-01
-6.570110664870817407e-01,-4.151304914283567848e-01,-5.297439705193601744e-01,-5.008763464714660607e-01,-3.725205890721253188e-01,-1.680228297423159711e-01
-7.222419643730493277e-01,-5.472523778949622830e-01,-5.922334740528114594e-01,-4.441370129186087423e-01,-4.376613788427896612e-01,-1.931395220432594040e-01
-6.914363556849209003e-01,-5.194156577450865786e-01,-6.773602133703143791e-01,-4.456853441180314013e-01,-3.640290629533057820e-01,-3.276771073354696195e-01
-7.013563836188912992e-01,-4.889502318687778959e-01,-6.275128226438796419e-01,-4.104047329871204353e-01,-5.165734598306428449e-01,-1.622694771517885493e-01
-6.723640398316442779e-01,-4.687901633797720846e-01,-6.358951105738990250e-01,-3.477061645602282924e-01,-3.808223423888730808e-01,-1.568829291174177187e-01
-7.149707188632460353e-01,-5.752964848342508875e-01,-7.106976306533312471e-01,-4.593523575745148690e-01,-4.189024898458831858e-01,-1.288114122021815078e-01
-3.690248520781650443e-01,3.973691309116561543e-02,2.541764071626113619e-01,-4.066790797437255245e-01,6.653163661148063512e-02,-5.165752774110298207e-01
-3.787687166793030080e-01,3.051225213865425140e-02,1.891404226361099727e-01,-4.097875037601804715e-01,-4.352291098555075011e-02,-4.724068671298010669e-01
-4.894085215111358966e-01,6.353460327023641163e-02,2.032281212458211528e-01,-4.053301972166460931e-01,1.408728522289031879e-02,-5.392627646409702269e-01
-3.691939194084901676e-01,-5.752873221470095749e-02,2.664505691405560928e-01,-4.920553927130347782e-01,-8.732951647965385422e-02,-5.227502118983454737e-01
-5.053053107046847625e-01,5.651038187793869239e-02,3.215746005317055012e-01,-5.324343391594601460e-01,-3.987315023708541684e-02,-4.485527533958694191e-01
-4.662099031547258798e-01,8.201912670756546231e-03,2.540612209641642805e-01,-4.877591550109183216e-01,1.547018448887949593e-01,-4.592267130900696825e-01
-5.528195985849171379e-01,1.718425591095189969e-02,2.446208212494850320e-01,-6.169333037686977050e-01,-8.265985122917415828e-03,-5.027283308712585663e-01
-4.684467965595753847e-01,-1.042707030730985474e-01,2.561668888355405627e-01,-5.905862403339873223e-01,6.700016197505187510e-02,-4.391753034424734636e-01
-4.562233941812757765e-01,9.227842557376429722e-03,2.860622775317621103e-01,-4.803929589857820481e-01,1.158499439724408608e-01,-4.093486047848337028e-01
-4.929158647237810165e-01,3.055906244008449457e-02,3.547260197223223721e-01,-3.640318019498298696e-01,9.741221976766556087e-03,-5.611258284115439032e-01
-4.621898381601134420e-01,-6.285478199854099834e-02,2.534247205000464409e-01,-5.845699228768359568e-01,3.986164851271359333e-02,-3.632437762419794547e-01
-5.094991308370534489e-01,1.058436834841994245e-02,3.399836412109543682e-01,-4.628303649436449896e-01,-3.294512903351639460e-02,-4.559123973863670187e-01
-5.198504846031111182e-01,-3.154430437383565211e-02,2.913597745746112633e-01,-3.481285563334111655e-01,3.720088621056308331e-02,-5.259527817240112757e-01
-4.211304355975357128e-01,-6.027775722666690872e-02,4.351028456627470398e-01,-4.500720796602039608e-01,1.094768953689202323e-01,-4.016685701459978275e-01
-4.497260812077912284e-01,-9.937985384543132628e-02,4.006706226592962050e-01,-5.163294922435148759e-01,5.053470483326084894e-02,-5.911260291287757651e-01
-4.165182380057511069e-01,-5.338793614882224314e-02,3.964378039301695855e-01,-3.471030098989363877e-01,7.027059371781171904e-02,-4.872149580183030571e-01
-5.095485953707459270e-01,6.807231582664075020e-02,2.523091212076721268e-01,-4.640363147109759501e-01,8.988194092053727186e-03,-6.229969892446193258e-01
-3.707380855247492391e-01,-1.662736554552038393e-02,4.122546229382928473e-01,-4.414758244275424626e-01,-3.613126381056491754e-02,-5.186223791027031460e-01
-4.969465960956163664e-01,-7.093666649983593198e-02,1.921038585348841532e-01,-4.543110783853285262e-01,-7.857936867481685184e-02,-5.084887111450154817e-01
-5.343127263750582223e-01,-9.148229478800982278e-03,2.856842097253651236e-01,-4.843885824742162893e-01,5.715104762917380676e-02,-5.431341191729035511e-01
-4.518983660376691414e-01,-1.912390858543307204e-01,1.794777109666467196e-01,-5.822016684147408583e-01,1.025499954159835372e-02,-5.537754465373299073e-01
-4.981028071133911106e-01,3.185029679099245919e-02,3.655123855517490861e-01,-4.649867394818811839e-01,9.606193150715648665e-02,-6.572385822896379404e-01
8.778760274313225642e-02,-3.664636537163461494e-01,3.241738223948381625e-03,1.391657064300215185e-01,-6.471139193844100967e-01,2.446819633892182433e-01
1.304318165698231669e-03,-2.769626707174355773e-01,1.647930921974342239e-02,3.240324983605280540e-01,-6.508053492865695233e-01,2.929553084169663757e-01
5.241662443397675925e-02,-2.376363017569671499e-01,9.892447801064108148e-02,2.943643783555229265e-01,-6.253541357838768855e-01,2.428481271854601720e-01
1.119198659253164696e-01,-3.098056004684403564e-01,9.168892260336458655e-02,3.796714740394447340e-01,-6.673294907362453676e-01,1.826868016280787932e-01
5.063269595967682946e-02,-3.280954630251103343e-01,1.452314386684435410e-01,3.702727971452253741e-01,-7.105522821302842074e-01,3.268632808433039050e-01
5.552071920589644188e-02,-4.082235746775882967e-01,7.376418322384896420e-02,3.507893174714808993e-01,-6.196270915717728700e-01,3.950529543678965583e-01
8.071096369822550187e-02,-4.004956360366072610e-01,1.449085757257571189e-02,4.115136978315987459e-01,-6.394615676807761107e-01,2.314921609113967382e-01
-4.473727005361721742e-02,-4.512375277027621534e-01,6.856794658522316621e-02,5.005029060806764907e-01,-7.455064300591253135e-01,2.592450210928553544e-01
1.144941557659567566e-01,-3.835035070888020980e-01,3.856290426677402156e-02,4.121358532388591511e-01,-7.068909149439062123e-01,2.807191287112250633e-01
1.130203597854476938e-01,-4.802088387028286554e-01,-9.038664998249923421e-02,2.929578994360801381e-01,-6.971639016651229870e-01,2.760477390418681898e-01
1.825600871655470164e-02,-3.061913694489147297e-01,6.402762310170971582e-03,3.300627732401858472e-01,-7.159445723473080170e-01,3.000419661075762745e-01
5.778316324520923336e-02,-3.768110166419182394e-01,1.473697309936549404e-01,4.047564785141667953e-01,-6.193364679129542694e-01,2.635828059328233497e-01
1.901570719189958625e-01,-3.585705817394206352e-01,9.294344843278862234e-02,3.394250210912551635e-01,-6.751259140770091705e-01,1.737100344001881180e-01
6.324632650515701893e-02,-4.006671150780309332e-01,1.351312273765603034e-01,3.163287683033563225e-01,-7.079562883193676326e-01,2.517067095679956235e-01
-6.514231618417938574e-02,-3.765707395638287491e-01,1.409971184555784685e-02,2.874347389969106326e-01,-6.387696817016825790e-01,2.578843801700946292e-01
-2.797483116369277323e-02,-2.907032380953549211e-01,1.411220511372840991e-01,4.092865754112109400e-01,-6.831447136317269075e-01,1.920062257003623818e-01
6.455914248601857253e-02,-3.862291072787989443e-01,3.574512578692642939e-02,2.969011691893535532e-01,-6.024072984586763546e-01,3.017471250246330783e-01
4.590413514838610765e-02,-4.295408542271797470e-01,1.156845561409000633e-02,3.043132793957953330e-01,-7.919573086217727154e-01,2.816467332882610086e-01
1.495124462795511255e-01,-4.163266598025790466e-01,8.350331262329555027e-02,3.341478923422608327e-01,-7.342622777654533861e-01,2.390562292457224791e-01
-1.544869446734188634e-03,-3.694575291078505130e-01,2.719645619546041948e-02,4.329868017741135833e-01,-7.520408951710781942e-01,1.215483523497678797e-01
6.039719344880931789e-02,-2.878846498329408199e-01,3.494490869896378638e-02,3.455938979348919249e-01,-5.825819874506934504e-01,1.919156882258267749e-01
8.295539547453092966e-02,-2.991420026759039619e-01,1.177045018384129810e-02,3.672273421030597396e-01,-7.931778331305679997e-01,2.556530427042168485e-01
6.433751988624046569e-02,-3.603778464531934289e-01,4.494848196543096280e-02,3.548881390311177664e-01,-6.792736520545038514e-01,1.478725441748658387e-01
1.012936470571230707e-01,-3.292283521653888156e-01,1.501610040574382632e-01,3.734562308034374278e-01,-6.766493552046308757e-01,1.804012156282673862e-01
6.302045129899384868e-02,-3.357405240058987661e-01,1.550010067401434988e-01,3.050206264417141266e-01,-6.943187260818204365e-01,3.749760980084295148e-01
3.042521942271025556e-02,-4.109088693404265857e-01,6.843675205478630397e-02,3.491702605340211152e-01,-6.594252029278072635e-01,8.431707372547114776e-02
5.541397762649569181e-02,-3.939985943693879444e-01,9.941423903817159236e-02,4.017994374800663571e-01,-6.002893473758952325e-01,2.873441784206210992e-01
4.291907766719622874e-03,-4.337158442174016693e-01,5.411164728018234837e-02,3.761204515350030642e-01,-6.712381143415456775e-01,2.728192162082229699e-01
1.010939595008617520e-01,-3.985335517122737814e-01,-1.843239624822089195e-02,3.553659977389553859e-01,-7.891777011605524139e-01,2.974210231689350947e-01
1.424684880376726748e-02,-2.519680935919183518e-01,7.941200712669689576e-02,3.270664886657272397e-01,-6.776969358324431703e-01,2.691421515379191498e-01
-7.309072840921068681e-03,-3.211695442445399729e-01,8.265908750273930072e-02,3.176563356215843514e-01,-6.845316208161044136e-01,2.412119901637671260e-01
1.083140996413743118e-01,-3.751038351933072001e-01,8.503219843164877556e-02,3.479085493882013158e-01,-6.528890828088893539e-01,2.168723773779789588e-01
2.549633722000146235e-02,-3.858293350799500976e-01,8.073214525838742772e-02,2.734106072963374823e-01,-6.596414566422751369e-01,2.419275549139021375e-01
9.829795190973122931e-02,-2.812833363342726600e-01,-4.333793019520554290e-03,3.271513276744876797e-01,-7.663107866129716950e-01,1.947339977298316871e-01
1.252207624672820874e-01,3.470395932862053168e-01,1.772905683284285439e-01,-2.340994341191373063e-01,-4.965975762721080433e-01,3.878369261679433522e-01
2.919642860079839641e-01,4.161241646729631483e-01,7.579090883611401541e-02,-8.153800900764246462e-02,-5.857891158866689318e-01,5.632351614086102964e-01
2.719530106523015967e-02,2.737248500964982734e-01,6.715730490696919519e-02,-1.900378614166026159e-01,-4.537879012394632205e-01,3.839828288960918101e-01
2.254107987788878109e-02,3.504668914704724969e-01,6.087922876566240205e-02,-1.110593084401526459e-01,-4.869369898240082373e-01,4.894925807896051695e-01
1.412348020467868726e-01,3.457220169388210418e-01,3.435410260213565825e-02,-1.333232252823334796e-01,-5.322154015867659460e-01,4.555996004827628232e-01
1.257793806587545193e-01,3.416311503818482698e-01,9.951455827068049487e-02,-7.186500409333944350e-02,-5.307312441678240234e-01,4.394398881027376524e-01
1.864030696946601395e-01,3.744373831592084922e-01,5.657824893636262398e-02,-1.866614735286308835e-01,-5.983219211298398399e-01,4.898543782636525790e-01
1.602016003739102079e-01,3.582381690657054363e-01,1.786897451511897106e-01,-1.819526796840786054e-01,-5.483479835628568555e-01,3.902245401726157081e-01
9.939970245242885083e-02,2.445834626168276460e-01,1.536230855809976314e-01,-1.259878940548561366e-01,-5.829563042960173025e-01,4.837533087495938244e-01
7.322446905402069106e-02,3.880886155515942404e-01,1.007087928471047111e-01,-1.813922410056233447e-01,-5.436236607240347851e-01,4.990144832268659791e-01
1.402401622073962961e-01,2.970413394171609323e-01,9.104521739326405794e-02,-1.016895184932198742e-01,-6.541279197081251162e-01,4.767520132606986594e-01
1.510517170018533806e-01,2.201313414915948563e-01,8.378345266036771322e-03,-1.783682259363538192e-01,-5.542009290174041425e-01,5.059348979210995800e-01
2.026161484710446437e-01,2.723201558623166152e-01,1.514573503685887612e-01,-5.518450227785266782e-02,-4.925559341606552954e-01,6.060890637133580228e-01
4.675117780980604654e-02,2.596027431653644690e-01,1.143039740587814823e-01,-4.570325153717928746e-02,-4.799375811807663483e-01,5.612889033695879215e-01
2.496566101299621532e-01,2.718566409603858647e-01,5.408406157420764943e-02,-1.160204429741192311e-01,-4.280212759021099767e-01,5.425789069627929839e-01
1.934265339629400726e-01,2.819489364863110303e-01,1.630346748219674846e-01,-7.592658957813622211e-02,-5.071045574503629805e-01,4.240378858236503179e-01
1.418115985025734660e-01,3.094248679484125075e-01,1.839874867896869881e-01,-1.430830690770638070e-01,-5.315331595783583385e-01,5.297568406839834321e-01
1.360868658110188367e-01,2.745506814502514659e-01,6.190996343301191640e-02,-1.820057113730497722e-01,-6.340729686237954743e-01,4.592117169499804752e-01
4.458056358273121411e-02,3.981344449521330708e-01,2.363477869509959806e-01,-3.770228720879201245e-02,-5.320778215261767752e-01,5.378963261825450148e-01
1.893314035781610283e-01,4.549651373150051525e-01,7.042002633800062417e-02,-4.936164261891612393e-02,-4.642429377918391720e-01,4.248728843903273877e-01
1.488613264727506047e-01,3.773112679668287894e-01,1.930884404480383010e-01,-1.028197801220096658e-01,-5.423231847033939124e-01,4.704892138859110839e-01
3.945798311691667282e-02,4.322818646225732864e-01,-5.480559034517118455e-02,-2.160826429068110899e-01,-4.531243860538172186e-01,4.406921349649051134e-01
1.940579745044860860e-01,3.888080332243478709e-01,1.647633784415051539e-01,-1.863702466020689674e-01,-5.466054519762137964e-01,4.875822554040842860e-01
1.438314258194035578e-01,2.716034211314319879e-01,-6.626583850141712362e-02,-1.451808996267295870e-01,-5.806073064016185059e-01,3.611551600479820934e-01
1.171676220369389648e-01,2.830775802193437607e-01,-1.037175341461277212e-03,-1.469845699198699673e-01,-6.090463890036900141e-01,5.471237843448216731e-01
2.508029894749018440e-02,3.331283116316212656e-01,6.962016226141128084e-02,-1.965460908223965464e-01,-4.342953115207027204e-01,5.358060625262508481e-01
9.067336329742196888e-02,2.600931307887835997e-01,1.175314599401439952e-01,-1.401834251932953801e-01,-4.811441438865991516e-01,5.744400110468199649e-01
5.702376549255178118e-02,3.676283309609692518e-01,3.442160329562669874e-02,-1.618128222669464877e-01,-5.399836107703017696e-01,5.006421638023327292e-01
1.986025694702834854e-01,2.506952601047148232e-01,2.322228863038924840e-02,-1.215826796710660629e-01,-5.612099899203183417e-01,3.998364379860755990e-01
1.969456442962322362e-01,3.090129700694130288e-01,4.643456047014404148e-02,-2.141575021234410348e-01,-5.491482190489547222e-01,4.837919498966440912e-01
5.780226156305930119e-02,4.198918252486819602e-01,1.029306625515481605e-01,-1.205530551203395223e-01,-4.705862369150737856e-01,4.748556475561601653e-01
4.520543190996996474e-02,3.658188985474774557e-01,1.217274526727980255e-01,-1.870796609913282782e-01,-5.583981765249727003e-01,4.521999933283950557e-01
7.050803416100814847e-02,4.007747404044855744e-01,-2.211325948253063667e-02,-2.144538212692269075e-01,-5.695929851089508444e-01,5.349730005892580076e-01
9.300918948000713726e-02,2.891559180644019955e-01,2.141147644352222601e-01,-1.513802801571718093e-01,-4.700474329320883382e-01,4.984383123606268562e-01
1.511666118152924509e-01,3.395135257228656944e-01,1.209219102974524451e-01,-5.877384776016340850e-02,-4.947229124642257836e-01,4.663905521277589838e-01
8.662087587343295092e-02,3.640970955557040756e-01,1.429846463485285601e-01,-2.110816361457084067e-01,-4.969671422087891810e-01,5.017031180028925785e-01
-2.779799076828162741e-02,4.252442534306678512e-01,1.832881654269371829e-01,-8.619168190466623691e-02,-4.429865475298394029e-01,4.885419704648044092e-01
6.654682140624963715e-02,3.122189911563458264e-01,1.379467926145202805e-01,-1.210882346442971047e-01,-5.267454192110603284e-01,4.690173196703290026e-01
1.285844171954948489e-01,2.421819180436729224e-01,1.682032002187687225e-01,-1.372757834469137406e-01,-4.477386973921151925e-01,6.156366425699010270e-01
1.000533188914562999e-01,3.440294223819256869e-01,2.604555740119138818e-01,-1.167432046364303561e-01,-5.228380341951783805e-01,4.876426952519746227e-01
9.581938451049076821e-02,3.266008035065334214e-01,1.270382514174172861e-01,-5.981320290580058319e-02,-4.420320756410446861e-01,4.855989735482363345e-01
1.382787826176647139e-01,3.454854691786853893e-01,1.293654181018648874e-01,-5.909036242923808302e-02,-4.506050080330170071e-01,7.044034553513207619e-01
1.882389685688278802e-01,3.008027380834996656e-01,3.996295488780369359e-02,-4.346702080303996296e-02,-5.767429455014403405e-01,3.905372594157902055e-01
9.930707919904428749e-02,3.733806268907223225e-01,1.775708860771366693e-01,-7.164500476910211357e-02,-5.010414815218531270e-01,4.556450535722191275e-01
2.148843694711658758e-01,2.905084915949520674e-01,6.301081441563397001e-03,-9.267170133744473404e-02,-4.482748395848361045e-01,3.433023033447669681e-01
2.476886745791039846e-01,4.470138892299998501e-01,5.893501009682839548e-02,-2.114766299402512373e-01,-5.216945963244263851e-01,5.100386250542867650e-01
5.391401614959102917e-02,3.464914011523689830e-01,1.739785500628310277e-03,-1.442000332803047569e-01,-5.802397114953176116e-01,4.116999240479115585e-01
1.230392266718902949e-01,3.430816964547556691e-01,2.283599760987692628e-01,-1.488297017522902943e-01,-4.711901965236911516e-01,5.398049192885694403e-01
2.879442429659545555e-01,3.830540745577330486e-01,-7.300496456019545111e-02,-1.950670335309118708e-01,-5.659953550204104289e-01,5.469710461175313343e-01
9.107670251777148784e-02,2.465746130644114187e-01,1.519823059323096026e-01,-1.186068727430155262e-01,-5.683823294855563368e-01,4.851974413006452935e-01
8.836233934229695275e-02,4.268337222276656906e-01,5.393528503951769415e-02,-1.124968323715724028e-01,-6.174420086626799531e-01,3.708068496003505410e-01
1.561358289937152533e-01,4.086493761740623842e-01,6.970039339870601203e-02,-1.772763491548602355e-01,-4.517013848564843115e-01,4.280936449472789174e-01
1.905924737672155811e-02,3.272633383375323501e-01,7.255268935132486163e-02,-1.895801348499993044e-01,-5.227438859549330408e-01,4.133541298823204535e-01
8.927360942542791888e-02,2.615485102412104523e-01,6.151194393167224578e-02,-9.066556415037577144e-02,-6.087269139033446574e-01,6.535252202707625413e-01
1.461942061111904112e-01,3.202263238057207473e-01,1.119901783473917223e-01,-1.991309838273111477e-01,-5.410751123826232911e-01,4.811954213799735647e-01
1.750253556423911339e-02,3.525175783820905240e-01,7.925069883383312197e-02,-1.406779373911045683e-01,-4.642883585058995566e-01,4.666124461738003215e-01
2.113004188633440528e-01,3.504596310315886143e-01,1.447411923135951128e-01,-1.212395442619652181e-01,-4.615873728771996976e-01,5.365295115454535857e-01
2.002320933093157396e-01,3.634637353962696382e-01,1.654160870440107289e-01,-2.177022417032083990e-01,-5.287175834486509407e-01,4.529472155443941550e-01
4.824694307164546780e-02,3.310552712210065307e-01,1.419297073870743331e-01,-1.157805954294331419e-01,-4.754846353637321998e-01,4.474806342553913074e-01
2.303954938774866457e-01,2.809678040087813522e-01,1.371218840183169307e-01,-1.557254390080325956e-01,-4.685179319957170074e-01,5.035024199140376577e-01
2.112489985847499918e-01,2.779278990975008190e-01,1.108895706247360613e-01,-1.029689272893171692e-01,-5.341333168862280045e-01,3.917879251808402685e-01
1.174344997250598571e-01,3.387860391004701155e-01,1.150751325950133408e-02,-1.087014119658442635e-01,-5.400769658595709899e-01,4.682333924517401713e-01
1.217018136118236810e-01,2.796909400750950958e-01,2.059692761332782007e-01,-1.299124042620060093e-01,-4.809115513210794335e-01,5.298609392580271304e-01
8.845600045852786142e-02,2.335725117282622110e-01,-2.027024309650599099e-02,-9.098440015041092677e-02,-4.893110564338410406e-01,5.379904630178033997e-01
6.053509571913257004e-02,3.701234492313395519e-01,7.544955010382967120e-02,-1.662680127214606340e-01,-4.270055187921328876e-01,3.722646570536207733e-01
2.610528252421315809e-01,3.887307952771318353e-01,1.048316321651276278e-01,-1.474903258276872575e-01,-4.997549777964577777e-01,4.166788042992810581e-01
7.757521022358800089e-02,3.815355628050434711e-01,1.192873064163856439e-01,-1.983877278466558980e-01,-4.732763900392729650e-01,4.606966352872075565e-01
1.491847491100081191e-01,2.698123899874989018e-01,9.054102562460214498e-02,-9.517148725561709599e-02,-5.151615827420135130e-01,4.656453867010322822e-01
1.584116449576842556e-01,3.897859521571314101e-01,1.007385449464804072e-01,-1.735847057767114787e-01,-5.067892981129770158e-01,4.668014038846177716e-01
2.018802835273246776e-01,3.740651212025194461e-01,5.000640236290555124e-02,-1.852128010195653873e-01,-5.594785000803349506e-01,3.639143389413591057e-01
5.977484513677501499e-02,3.033136188012113266e-01,-4.646587887435915665e-02,-8.093451033696213992e-02,-5.643725496821061505e-01,4.029432616084416274e-01
1.172089073050832791e-01,2.755041904746649006e-01,1.428929143944877578e-01,-9.232731535366241193e-02,-5.765013979412525469e-01,4.768005100934128437e-01
1.306437651636203623e-01,3.334915305251139328e-01,1.768675576592405596e-01,-2.226095808324621006e-01,-4.719430559159669691e-01,4.364428689941324824e-01
1.949153765133799232e-01,3.501346163279797086e-01,1.254594656395023045e-01,-1.379911045953332860e-01,-4.074325184341843209e-01,4.443563672375426266e-01
1.926517312270487337e-01,4.641015242982144406e-01,4.349540443886364821e-02,-1.430364859586253923e-01,-4.861342315677622539e-01,4.631000699335722781e-01
-5.242998613366359750e-01,1.418856186902911487e-02,3.644536360876259318e-01,-2.149637060794531984e-01,-4.115852761797589854e-01,-7.248027314659550857e-01
-5.345861690396708221e-01,-1.150076289888071340e-01,3.992318632284393431e-01,-2.052641744164455107e-01,-4.162271171859496799e-01,-5.287631326524059316e-01
-4.905692659578627102e-01,-1.159215797388611635e-03,3.277961746964822565e-01,-1.563508864623842642e-01,-3.948935474898624398e-01,-4.512677887889833261e-01
-5.955146922116856256e-01,-2.847995438787650005e-02,2.862764799322423670e-01,-2.008723086185524587e-01,-4.225166412680154138e-01,-4.873327180499282818e-01
-4.379701363287745730e-01,-3.808686810008270890e-02,3.200258544942518601e-01,-2.391626184315389092e-01,-3.530144183366256128e-01,-5.742354095165268513e-01
-6.087850253638389386e-01,-1.352333886255294715e-01,4.148302839627971972e-01,-2.320141372726560181e-01,-4.342713651598575919e-01,-5.642257024717489688e-01
-5.557331597508943233e-01,-4.099499614631047645e-02,4.161951083680966446e-01,-1.428228711553021779e-01,-3.238678857198460381e-01,-5.265225112214335645e-01
-5.230635092047272172e-01,-9.592164817546916522e-02,3.774221106786626034e-01,-3.186883886278165101e-01,-3.443708219419995276e-01,-4.927690098916969741e-01
-5.219751675650731171e-01,1.025151178231686611e-01,3.264644702580883906e-01,-1.501391410372137081e-01,-3.885291751451868114e-01,-5.078811525584169262e-01
-6.144293400938556360e-01,-1.559824393848215363e-01,4.197761348691757544e-01,-8.938548215488877069e-02,-4.690762531202261609e-01,-4.703280532303852346e-01
-4.796179813169402784e-01,-1.925740879029771979e-01,3.378744987720275206e-01,-2.358012239970656565e-01,-5.160072042552931171e-01,-5.174934175590074625e-01
-4.217037921011415058e-01,-6.688728901623863798e-03,2.687323786462167963e-01,-1.994015203093292277e-01,-4.271278137365305261e-01,-5.489155695811294144e-01
-6.151262208877535942e-01,-1.768644869164330558e-03,5.196752099585220108e-01,-1.861245107101205942e-01,-2.922787646924579485e-01,-6.017852261444456285e-01
-4.201624938821481026e-01,4.770377009561302395e-03,4.256353413671651875e-01,-2.289001922836792491e-01,-2.619929886106838746e-01,-5.592449005254874761e-01
-5.974425495219983784e-01,-4.581086679503839493e-02,3.447064986338773118e-01,-2.065171777976927692e-01,-4.198791532494637879e-01,-5.544243538440088992e-01
-5.410764150900313485e-01,-1.962062185955591037e-02,3.632378995320783566e-01,-1.042318312554332688e-01,-4.041740549175431019e-01,-5.903295936341514949e-01
-5.218026341018073833e-01,-1.088543704864999018e-01,3.476346737897991201e-01,-1.536967260892247444e-01,-4.285611898960244859e-01,-5.376915628797804825e-01
6.404644970901468559e-01,-2.332638727302340786e-01,-1.487948224056554608e-02,5.517613160379004622e-01,-3.557646936170373864e-01,7.615589618543440464e-02
6.562866879322811764e-01,-3.256673646148122714e-01,-1.588304936140223500e-01,6.274297338247822875e-01,-4.077192707667736116e-01,1.793457296213621099e-01
6.816906681001994039e-01,-2.731858798534119170e-01,-5.661233124884855472e-02,5.651591558390940406e-01,-4.754786518298377840e-01,1.813602219961848450e-01
6.405892341233533349e-01,-2.022307426696154098e-01,-5.230772888348211858e-02,5.875679286231786369e-01,-2.646399345070966636e-01,2.358368510583409572e-01
7.059315089086886097e-01,-2.643478857677982186e-01,6.678748253491473275e-02,5.267196893498493626e-01,-2.579108883445816458e-01,1.410733887189518088e-01
5.890002959811608818e-01,-2.104579994802769916e-01,-1.313260095567602148e-01,4.995292566748197882e-01,-3.591451792431865075e-01,1.736348818169018426e-01
6.974881130657165640e-01,-2.055763664656488077e-01,-1.604373096497461737e-01,5.773755079360617382e-01,-4.111600311680136399e-01,1.305013961388334642e-01
6.712281298640367933e-01,-3.022959592921667382e-01,-4.984996681303472538e-02,5.917212206632699312e-01,-3.117354074011885467e-01,1.931754998372626764e-01
7.713608263929521147e-01,-3.508791758772561997e-01,-1.685074044570389340e-01,6.584672434605851610e-01,-3.405563951107449250e-01,9.239829316877593013e-02
6.662914619380937431e-01,-2.900639338566733394e-01,-4.467378150366733969e-02,6.396185309048049161e-01,-2.494340130857481408e-01,1.767294566834780867e-01
6.641373764525390078e-01,-1.997019871084776688e-01,-6.620015122757440251e-02,6.320968631962956552e-01,-2.624985694718735552e-01,1.436108564419237843e-01
7.122908762230132362e-01,-2.369089817832421285e-01,-8.036769910371888148e-02,5.939196536473797527e-01,-3.049653113634595569e-01,4.208957099713678263e-02
5.553794225965571485e-01,-3.030106302701957577e-01,-1.322505672985172520e-01,6.131336748631477374e-01,-4.333808574027103178e-01,1.568713220039284206e-01
7.093043955456190819e-01,-2.521720484225029035e-01,1.331291087499321402e-02,5.926535175098360808e-01,-4.653873133348408464e-01,1.753974672926328637e-01
6.173714489486512580e-01,-2.337944423934631699e-01,-9.852994627289093921e-02,5.413466561268586164e-01,-3.832903794225027139e-01,1.751472927799258839e-01
6.094123949064006451e-01,-1.916036819246624556e-01,-1.046108179015555750e-01,5.375053434937148156e-01,-4.294895108964916774e-01,5.549057016992248181e-02
6.206633385765925048e-01,-2.006711702075275883e-01,-2.386294223008826598e-02,5.319958283239316632e-01,-3.712222595439279016e-01,7.927817724357633100e-02
5.892014471634339223e-01,-3.065919696408185291e-01,-6.430567255872741972e-02,5.762424303751714216e-01,-3.626874644140749560e-01,1.636375926800419378e-01
6.618594733512058736e-01,-2.726518243360399607e-01,-1.226959742674806758e-01,5.659834680721098632e-01,-4.733635928696341977e-01,1.860317436505895816e-01
6.163741573587896427e-01,-9.211715126916505958e-02,-2.549225679150957102e-02,5.365973695756951489e-01,-2.414676480932900493e-01,2.028140616329635881e-01
7.057085996482680423e-01,-2.589581411435351588e-01,-7.231219368126712288e-02,6.565073114916868402e-01,-4.906121184042574468e-01,1.460187992805860313e-01
-3.181436922487101970e-02,-1.438800890287590950e-01,3.532249925652343192e-01,3.848860064481040011e-01,-5.691604532548590889e-01,-2.886682988763813462e-01
-1.779074290416043924e-01,-2.003223409786020759e-01,3.408268759866311393e-01,1.633537246435906032e-01,-5.753936161901165303e-01,-2.327573494521170128e-01
-1.766335945647463102e-01,6.212698097474531056e-03,4.260576732751580886e-01,1.357898238860325013e-01,-6.135442592760074199e-01,-1.429381353580434777e-01
-1.425351947483776693e-01,-1.555617163675254155e-01,3.469062808484308369e-01,3.004125003630749302e-01,-4.771803690686932109e-01,-1.933766811203347369e-01
-2.217662033353976492e-01,-1.399154823768596068e-01,3.381168394544127875e-01,8.353735802815928646e-02,-5.347005829540905086e-01,-2.456398985274765856e-01
-2.043977246116266411e-01,-5.734491458814869325e-02,2.475969014125390388e-01,2.830970696422936972e-01,-5.087501639892600958e-01,-2.332462628485119649e-01
-1.521474384435639871e-01,-1.980034916331326889e-01,4.134261973908560650e-01,2.381792247998218703e-01,-5.744432507634528173e-01,-2.852130466853206037e-01
-2.254842138609999824e-01,-6.742747404535057165e-02,2.035631402950929536e-01,2.959861549014389803e-01,-5.795388847167091129e-01,-1.739034026361670482e-01
-2.435128150344486597e-01,-1.536333343368673221e-01,3.119148856930800684e-01,3.408231927491549018e-01,-5.104413242803850226e-01,-3.505086434485425451e-01
-1.926337443640084857e-01,-1.439333072955560899e-01,3.484882947545169252e-01,1.824859462796659670e-01,-5.068236824838939780e-01,-3.278150895170177659e-01
-2.455336729699362508e-01,-1.040880347744799761e-01,3.347824289821383359e-01,2.538030009024619393e-01,-5.850817494481952430e-01,-3.943047536359322036e-01
-1.625770769519330750e-01,-1.707191773275753555e-01,2.381759221840674956e-01,2.543618194085939810e-01,-5.039381121353087023e-01,-3.026843537826598984e-01
-2.300514343689674113e-01,-1.652818581870639236e-01,2.519159167405370381e-01,4.823182451038462437e-01,-4.936790059373227235e-01,-2.433339712549377754e-01
-1.931849041230052355e-01,-5.091074558813265399e-02,3.063646332678605089e-01,3.159609633124468298e-01,-6.203175650473305991e-01,-3.814114236062556285e-01
-2.625490665310158400e-01,-2.981414764642119353e-02,2.242492176542220661e-01,3.284061921310650889e-01,-5.385819504356809118e-01,-1.759824539042705860e-01
-2.147136510879978644e-01,-1.924218473320487566e-01,3.574312925926189655e-01,3.820071459233778111e-01,-5.110484240563324398e-01,-2.867330508162913016e-01
-2.907895985107242787e-01,-1.295594543448669311e-01,3.042699820961980994e-01,2.852290479966544390e-01,-4.974237675561725691e-01,-2.866758710546428168e-01
-8.414766379023050358e-02,-2.114279375436734498e-01,2.658259154755739928e-01,3.705006414600302556e-01,-3.798807906922155864e-01,-2.792589447989938245e-01
